ply
format ascii 1.0
comment PCL generated
element vertex 1593
property float x
property float y
property float z
property uchar red
property uchar green
property uchar blue
element camera 0
property float view_px
property float view_py
property float view_pz
property float x_axisx
property float x_axisy
property float x_axisz
property float y_axisx
property float y_axisy
property float y_axisz
property float z_axisx
property float z_axisy
property float z_axisz
property float focal
property float scalex
property float scaley
property float centerx
property float centery
property int viewportx
property int viewporty
property float k1
property float k2
end_header
40.2584 41 0.39989999 255 0 0
40.2584 41 0.5 255 0 0
40.2584 41 0.60009998 255 0 0
40.2584 41 0.70029998 255 0 0
40.2584 41 0.80040002 255 0 0
40.2584 41 0.90060002 255 0 0
40.3106 41 0.098899998 255 0 0
40.3106 41 0.1992 255 0 0
40.3106 41 0.29949999 255 0 0
40.3106 41 0.3998 255 0 0
40.3106 41 0.5 255 0 0
40.3106 41 0.6002 255 0 0
40.3106 41 0.70050001 255 0 0
40.3106 41 0.80080003 255 0 0
40.3106 41 0.90109998 255 0 0
40.363098 41 0.098300003 255 0 0
40.363098 41 0.1988 255 0 0
40.363098 41 0.2992 255 0 0
40.363098 41 0.3996 255 0 0
40.363098 41 0.5 255 0 0
40.363098 41 0.60039997 255 0 0
40.363098 41 0.7008 255 0 0
40.363098 41 0.80119997 255 0 0
40.363098 41 0.90170002 255 0 0
40.4156 41 0.097800002 255 0 0
40.4156 41 0.19840001 255 0 0
40.4156 41 0.29899999 255 0 0
40.4156 41 0.39950001 255 0 0
40.4156 41 0.5 255 0 0
40.4156 41 0.60049999 255 0 0
40.4156 41 0.70099998 255 0 0
40.4156 41 0.80159998 255 0 0
40.4156 41 0.90219998 255 0 0
40.4683 41 0.097199999 255 0 0
40.4683 41 0.198 255 0 0
40.4683 41 0.2987 255 0 0
40.4683 41 0.39930001 255 0 0
40.4683 41 0.5 255 0 0
40.4683 41 0.60070002 255 0 0
40.4683 41 0.70130002 255 0 0
40.4683 41 0.80199999 255 0 0
40.4683 41 0.90280002 255 0 0
40.521099 41 0.096699998 255 0 0
40.521099 41 0.19760001 255 0 0
40.521099 41 0.29840001 255 0 0
40.521099 41 0.39919999 255 0 0
40.521099 41 0.5 255 0 0
40.521099 41 0.60079998 255 0 0
40.521099 41 0.70160002 255 0 0
40.521099 41 0.80239999 255 0 0
40.521099 41 0.90329999 255 0 0
40.5741 41 0.096100003 255 0 0
40.5741 41 0.1971 255 0 0
40.5741 41 0.29809999 255 0 0
40.5741 41 0.39910001 255 0 0
40.5741 41 0.5 255 0 0
40.5741 41 0.60089999 255 0 0
40.5741 41 0.70190001 255 0 0
40.5741 41 0.80290002 255 0 0
40.5741 41 0.90390003 255 0 0
40.6273 41 0.0955 255 0 0
40.6273 41 0.19670001 255 0 0
40.6273 41 0.2978 255 0 0
40.6273 41 0.3989 255 0 0
40.6273 41 0.5 255 0 0
40.6273 41 0.60110003 255 0 0
40.6273 41 0.7022 255 0 0
40.6273 41 0.80330002 255 0 0
40.6273 41 0.90450001 255 0 0
40.680599 41 0.094899997 255 0 0
40.680599 41 0.1963 255 0 0
40.680599 41 0.29750001 255 0 0
40.680599 41 0.39879999 255 0 0
40.680599 41 0.5 255 0 0
40.680599 41 0.60119998 255 0 0
40.680599 41 0.70249999 255 0 0
40.680599 41 0.80369997 255 0 0
40.680599 41 0.90509999 255 0 0
40.734001 41 0.094300002 255 0 0
40.734001 41 0.19580001 255 0 0
40.734001 41 0.29719999 255 0 0
40.734001 41 0.39860001 255 0 0
40.734001 41 0.5 255 0 0
40.734001 41 0.60140002 255 0 0
40.734001 41 0.70279998 255 0 0
40.734001 41 0.80419999 255 0 0
40.734001 41 0.90570003 255 0 0
40.787601 41 0.093699999 255 0 0
40.787601 41 0.1954 255 0 0
40.787601 41 0.2969 255 0 0
40.787601 41 0.3985 255 0 0
40.787601 41 0.5 255 0 0
40.787601 41 0.60149997 255 0 0
40.787601 41 0.70310003 255 0 0
40.787601 41 0.8046 255 0 0
40.787601 41 0.90630001 255 0 0
40.8414 41 0.093099996 255 0 0
40.8414 41 0.19490001 255 0 0
40.8414 41 0.29660001 255 0 0
40.8414 41 0.39829999 255 0 0
40.8414 41 0.5 255 0 0
40.8414 41 0.60170001 255 0 0
40.8414 41 0.70340002 255 0 0
40.8414 41 0.80510002 255 0 0
40.8414 41 0.90689999 255 0 0
40.895302 41 0.092500001 255 0 0
40.895302 41 0.1944 255 0 0
40.895302 41 0.29629999 255 0 0
40.895302 41 0.39820001 255 0 0
40.895302 41 0.5 255 0 0
40.895302 41 0.60180002 255 0 0
40.895302 41 0.70370001 255 0 0
40.895302 41 0.80559999 255 0 0
40.895302 41 0.90750003 255 0 0
40.949402 41 0.091899998 255 0 0
40.949402 41 0.19400001 255 0 0
40.949402 41 0.296 255 0 0
40.949402 41 0.398 255 0 0
40.949402 41 0.5 255 0 0
40.949402 41 0.602 255 0 0
40.949402 41 0.704 255 0 0
40.949402 41 0.80599999 255 0 0
40.949402 41 0.90810001 255 0 0
41 40.973499 0.086499996 255 0 0
41 40.973499 0.2244 255 0 0
41 40.973499 0.36219999 255 0 0
41 40.973499 0.5 255 0 0
41 40.973499 0.63779998 255 0 0
41 40.973499 0.77560002 255 0 0
41 40.973499 0.91350001 255 0 0
41 40.853401 0.089100003 255 0 0
41 40.853401 0.2261 255 0 0
41 40.853401 0.36309999 255 0 0
41 40.853401 0.5 255 0 0
41 40.853401 0.63690001 255 0 0
41 40.853401 0.77389997 255 0 0
41 40.853401 0.9109 255 0 0
41 40.734798 0.091700003 255 0 0
41 40.734798 0.2278 255 0 0
41 40.734798 0.36390001 255 0 0
41 40.734798 0.5 255 0 0
41 40.734798 0.63609999 255 0 0
41 40.734798 0.77219999 255 0 0
41 40.734798 0.90829998 255 0 0
41 40.617599 0.0942 255 0 0
41 40.617599 0.2295 255 0 0
41 40.617599 0.36469999 255 0 0
41 40.617599 0.5 255 0 0
41 40.617599 0.63529998 255 0 0
41 40.617599 0.7705 255 0 0
41 40.617599 0.90579998 255 0 0
41 40.501801 0.096600004 255 0 0
41 40.501801 0.23109999 255 0 0
41 40.501801 0.36559999 255 0 0
41 40.501801 0.5 255 0 0
41 40.501801 0.63440001 255 0 0
41 40.501801 0.76889998 255 0 0
41 40.501801 0.9034 255 0 0
41 40.387501 0.098999999 255 0 0
41 40.387501 0.23270001 255 0 0
41 40.387501 0.3664 255 0 0
41 40.387501 0.5 255 0 0
41 40.387501 0.6336 255 0 0
41 40.387501 0.76730001 255 0 0
41 40.387501 0.90100002 255 0 0
41 40.274502 0.1014 255 0 0
41 40.274502 0.2343 255 0 0
41 40.274502 0.36719999 255 0 0
41 40.274502 0.5 255 0 0
41 40.274502 0.63279998 255 0 0
41 40.274502 0.76569998 255 0 0
41 40.274502 0.89859998 255 0 0
41 40.1628 0.1038 255 0 0
41 40.1628 0.2359 255 0 0
41 40.1628 0.368 255 0 0
41 40.1628 0.5 255 0 0
41 40.1628 0.63200003 255 0 0
41 40.1628 0.76410002 255 0 0
41 40.1628 0.8962 255 0 0
41 40.052502 0.1061 255 0 0
41 40.052502 0.2374 255 0 0
41 40.052502 0.3687 255 0 0
41 40.052502 0.5 255 0 0
41 40.052502 0.63129997 255 0 0
41 40.052502 0.7626 255 0 0
41 40.052502 0.89389998 255 0 0
40.957401 40 0.1065 255 0 0
40.957401 40 0.2377 255 0 0
40.957401 40 0.3689 255 0 0
40.957401 40 0.5 255 0 0
40.957401 40 0.6311 255 0 0
40.957401 40 0.76230001 255 0 0
40.957401 40 0.89349997 255 0 0
40.875 40 0.1052 255 0 0
40.875 40 0.2369 255 0 0
40.875 40 0.36840001 255 0 0
40.875 40 0.5 255 0 0
40.875 40 0.63160002 255 0 0
40.875 40 0.76310003 255 0 0
40.875 40 0.89480001 255 0 0
40.792099 40 0.1039 255 0 0
40.792099 40 0.236 255 0 0
40.792099 40 0.368 255 0 0
40.792099 40 0.5 255 0 0
40.792099 40 0.63200003 255 0 0
40.792099 40 0.764 255 0 0
40.792099 40 0.89609998 255 0 0
40.708599 40 0.1026 255 0 0
40.708599 40 0.2351 255 0 0
40.708599 40 0.36759999 255 0 0
40.708599 40 0.5 255 0 0
40.708599 40 0.63239998 255 0 0
40.708599 40 0.76490003 255 0 0
40.708599 40 0.89740002 255 0 0
40.624599 40 0.1012 255 0 0
40.624599 40 0.2342 255 0 0
40.624599 40 0.3671 255 0 0
40.624599 40 0.5 255 0 0
40.624599 40 0.6329 255 0 0
40.624599 40 0.7658 255 0 0
40.624599 40 0.89880002 255 0 0
40.540001 40 0.0999 255 0 0
40.540001 40 0.2333 255 0 0
40.540001 40 0.36660001 255 0 0
40.540001 40 0.5 255 0 0
40.540001 40 0.63340002 255 0 0
40.540001 40 0.76670003 255 0 0
40.540001 40 0.90009999 255 0 0
40.4548 40 0.098499998 255 0 0
40.4548 40 0.2324 255 0 0
40.4548 40 0.3662 255 0 0
40.4548 40 0.5 255 0 0
40.4548 40 0.63380003 255 0 0
40.4548 40 0.7676 255 0 0
40.4548 40 0.90149999 255 0 0
40.368999 40 0.097099997 255 0 0
40.368999 40 0.2314 255 0 0
40.368999 40 0.36570001 255 0 0
40.368999 40 0.5 255 0 0
40.368999 40 0.63429999 255 0 0
40.368999 40 0.76859999 255 0 0
40.368999 40 0.90289998 255 0 0
40.2826 40 0.095700003 255 0 0
40.2826 40 0.2305 255 0 0
40.2826 40 0.36520001 255 0 0
40.2826 40 0.5 255 0 0
40.2826 40 0.63480002 255 0 0
40.2826 40 0.76950002 255 0 0
40.2826 40 0.90429997 255 0 0
40.195599 40 0.0942 255 0 0
40.195599 40 0.2295 255 0 0
40.195599 40 0.36480001 255 0 0
40.195599 40 0.5 255 0 0
40.195599 40 0.63520002 255 0 0
40.195599 40 0.7705 255 0 0
40.195599 40 0.90579998 255 0 0
40.108002 40 0.092799999 255 0 0
40.108002 40 0.22849999 255 0 0
40.108002 40 0.36430001 255 0 0
40.108002 40 0.5 255 0 0
40.108002 40 0.63569999 255 0 0
40.108002 40 0.77149999 255 0 0
40.108002 40 0.90719998 255 0 0
40.019699 40 0.091300003 255 0 0
40.019699 40 0.22759999 255 0 0
40.019699 40 0.36379999 255 0 0
40.019699 40 0.5 255 0 0
40.019699 40 0.63620001 255 0 0
40.019699 40 0.77240002 255 0 0
40.019699 40 0.90869999 255 0 0
41 40.995602 0.030300001 255 0 0
41 40.995602 0.1478 255 0 0
41 40.995602 0.26519999 255 0 0
41 40.995602 0.38260001 255 0 0
41 40.995602 0.5 255 0 0
41 40.995602 0.61739999 255 0 0
41 40.995602 0.73479998 255 0 0
41 40.995602 0.85219997 255 0 0
41 40.995602 0.96969998 255 0 0
41 40.908298 0.032600001 255 0 0
41 40.908298 0.1495 255 0 0
41 40.908298 0.26640001 255 0 0
41 40.908298 0.38319999 255 0 0
41 40.908298 0.5 255 0 0
41 40.908298 0.61680001 255 0 0
41 40.908298 0.73360002 255 0 0
41 40.908298 0.85049999 255 0 0
41 40.908298 0.96740001 255 0 0
41 40.8218 0.0348 255 0 0
41 40.8218 0.1512 255 0 0
41 40.8218 0.26750001 255 0 0
41 40.8218 0.38370001 255 0 0
41 40.8218 0.5 255 0 0
41 40.8218 0.61629999 255 0 0
41 40.8218 0.73250002 255 0 0
41 40.8218 0.8488 255 0 0
41 40.8218 0.96520001 255 0 0
41 40.736198 0.037 255 0 0
41 40.736198 0.15279999 255 0 0
41 40.736198 0.26859999 255 0 0
41 40.736198 0.38429999 255 0 0
41 40.736198 0.5 255 0 0
41 40.736198 0.61570001 255 0 0
41 40.736198 0.73140001 255 0 0
41 40.736198 0.84719998 255 0 0
41 40.736198 0.963 255 0 0
41 40.651402 0.0392 255 0 0
41 40.651402 0.15440001 255 0 0
41 40.651402 0.26969999 255 0 0
41 40.651402 0.38479999 255 0 0
41 40.651402 0.5 255 0 0
41 40.651402 0.61519998 255 0 0
41 40.651402 0.73030001 255 0 0
41 40.651402 0.84560001 255 0 0
41 40.651402 0.96079999 255 0 0
41 40.567299 0.041299999 255 0 0
41 40.567299 0.156 255 0 0
41 40.567299 0.27070001 255 0 0
41 40.567299 0.3854 255 0 0
41 40.567299 0.5 255 0 0
41 40.567299 0.6146 255 0 0
41 40.567299 0.72930002 255 0 0
41 40.567299 0.84399998 255 0 0
41 40.567299 0.9587 255 0 0
41 40.4841 0.043400001 255 0 0
41 40.4841 0.1576 255 0 0
41 40.4841 0.27180001 255 0 0
41 40.4841 0.38589999 255 0 0
41 40.4841 0.5 255 0 0
41 40.4841 0.61409998 255 0 0
41 40.4841 0.72820002 255 0 0
41 40.4841 0.84240001 255 0 0
41 40.4841 0.95660001 255 0 0
41 40.4016 0.045499999 255 0 0
41 40.4016 0.1592 255 0 0
41 40.4016 0.2728 255 0 0
41 40.4016 0.38640001 255 0 0
41 40.4016 0.5 255 0 0
41 40.4016 0.61360002 255 0 0
41 40.4016 0.72719997 255 0 0
41 40.4016 0.84079999 255 0 0
41 40.4016 0.95450002 255 0 0
41 40.319801 0.047600001 255 0 0
41 40.319801 0.16069999 255 0 0
41 40.319801 0.2739 255 0 0
41 40.319801 0.38690001 255 0 0
41 40.319801 0.5 255 0 0
41 40.319801 0.61309999 255 0 0
41 40.319801 0.72610003 255 0 0
41 40.319801 0.83929998 255 0 0
41 40.319801 0.95240003 255 0 0
41 40.2388 0.049600001 255 0 0
41 40.2388 0.16230001 255 0 0
41 40.2388 0.27489999 255 0 0
41 40.2388 0.3874 255 0 0
41 40.2388 0.5 255 0 0
41 40.2388 0.61260003 255 0 0
41 40.2388 0.72509998 255 0 0
41 40.2388 0.83770001 255 0 0
41 40.2388 0.95039999 255 0 0
41 40.158501 0.051600002 255 0 0
41 40.158501 0.1638 255 0 0
41 40.158501 0.27590001 255 0 0
41 40.158501 0.38789999 255 0 0
41 40.158501 0.5 255 0 0
41 40.158501 0.61210001 255 0 0
41 40.158501 0.72409999 255 0 0
41 40.158501 0.8362 255 0 0
41 40.158501 0.94840002 255 0 0
41 40.078899 0.053599998 255 0 0
41 40.078899 0.1652 255 0 0
41 40.078899 0.27689999 255 0 0
41 40.078899 0.38839999 255 0 0
41 40.078899 0.5 255 0 0
41 40.078899 0.61159998 255 0 0
41 40.078899 0.72310001 255 0 0
41 40.078899 0.8348 255 0 0
41 40.078899 0.94639999 255 0 0
41 40 0.055500001 255 0 0
41 40 0.16670001 255 0 0
41 40 0.27779999 255 0 0
41 40 0.38890001 255 0 0
41 40 0.5 255 0 0
41 40 0.61110002 255 0 0
41 40 0.72219998 255 0 0
41 40 0.83329999 255 0 0
41 40 0.94450003 255 0 0
40.9212 40 0.053599998 255 0 0
40.9212 40 0.1652 255 0 0
40.9212 40 0.27689999 255 0 0
40.9212 40 0.38839999 255 0 0
40.9212 40 0.5 255 0 0
40.9212 40 0.61159998 255 0 0
40.9212 40 0.72310001 255 0 0
40.9212 40 0.8348 255 0 0
40.9212 40 0.94639999 255 0 0
40.841599 40 0.051600002 255 0 0
40.841599 40 0.1638 255 0 0
40.841599 40 0.27590001 255 0 0
40.841599 40 0.38789999 255 0 0
40.841599 40 0.5 255 0 0
40.841599 40 0.61210001 255 0 0
40.841599 40 0.72409999 255 0 0
40.841599 40 0.8362 255 0 0
40.841599 40 0.94840002 255 0 0
40.761299 40 0.049600001 255 0 0
40.761299 40 0.16230001 255 0 0
40.761299 40 0.27489999 255 0 0
40.761299 40 0.3874 255 0 0
40.761299 40 0.5 255 0 0
40.761299 40 0.61260003 255 0 0
40.761299 40 0.72509998 255 0 0
40.761299 40 0.83770001 255 0 0
40.761299 40 0.95039999 255 0 0
40.680302 40 0.047600001 255 0 0
40.680302 40 0.16069999 255 0 0
40.680302 40 0.2739 255 0 0
40.680302 40 0.38690001 255 0 0
40.680302 40 0.5 255 0 0
40.680302 40 0.61309999 255 0 0
40.680302 40 0.72610003 255 0 0
40.680302 40 0.83929998 255 0 0
40.680302 40 0.95240003 255 0 0
40.598499 40 0.045499999 255 0 0
40.598499 40 0.1592 255 0 0
40.598499 40 0.2728 255 0 0
40.598499 40 0.38640001 255 0 0
40.598499 40 0.5 255 0 0
40.598499 40 0.61360002 255 0 0
40.598499 40 0.72719997 255 0 0
40.598499 40 0.84079999 255 0 0
40.598499 40 0.95450002 255 0 0
40.515999 40 0.043400001 255 0 0
40.515999 40 0.1576 255 0 0
40.515999 40 0.27180001 255 0 0
40.515999 40 0.38589999 255 0 0
40.515999 40 0.5 255 0 0
40.515999 40 0.61409998 255 0 0
40.515999 40 0.72820002 255 0 0
40.515999 40 0.84240001 255 0 0
40.515999 40 0.95660001 255 0 0
40.4328 40 0.041299999 255 0 0
40.4328 40 0.156 255 0 0
40.4328 40 0.27070001 255 0 0
40.4328 40 0.3854 255 0 0
40.4328 40 0.5 255 0 0
40.4328 40 0.6146 255 0 0
40.4328 40 0.72930002 255 0 0
40.4328 40 0.84399998 255 0 0
40.4328 40 0.9587 255 0 0
40.348701 40 0.0392 255 0 0
40.348701 40 0.15440001 255 0 0
40.348701 40 0.26969999 255 0 0
40.348701 40 0.38479999 255 0 0
40.348701 40 0.5 255 0 0
40.348701 40 0.61519998 255 0 0
40.348701 40 0.73030001 255 0 0
40.348701 40 0.84560001 255 0 0
40.348701 40 0.96079999 255 0 0
40.263901 40 0.037 255 0 0
40.263901 40 0.15279999 255 0 0
40.263901 40 0.26859999 255 0 0
40.263901 40 0.38429999 255 0 0
40.263901 40 0.5 255 0 0
40.263901 40 0.61570001 255 0 0
40.263901 40 0.73140001 255 0 0
40.263901 40 0.84719998 255 0 0
40.263901 40 0.963 255 0 0
40.178299 40 0.0348 255 0 0
40.178299 40 0.1512 255 0 0
40.178299 40 0.26750001 255 0 0
40.178299 40 0.38370001 255 0 0
40.178299 40 0.5 255 0 0
40.178299 40 0.61629999 255 0 0
40.178299 40 0.73250002 255 0 0
40.178299 40 0.8488 255 0 0
40.178299 40 0.96520001 255 0 0
40.091801 40 0.032600001 255 0 0
40.091801 40 0.1495 255 0 0
40.091801 40 0.26640001 255 0 0
40.091801 40 0.38319999 255 0 0
40.091801 40 0.5 255 0 0
40.091801 40 0.61680001 255 0 0
40.091801 40 0.73360002 255 0 0
40.091801 40 0.85049999 255 0 0
40.091801 40 0.96740001 255 0 0
40.004501 40 0.030300001 255 0 0
40.004501 40 0.1478 255 0 0
40.004501 40 0.26519999 255 0 0
40.004501 40 0.38260001 255 0 0
40.004501 40 0.5 255 0 0
40.004501 40 0.61739999 255 0 0
40.004501 40 0.73479998 255 0 0
40.004501 40 0.85219997 255 0 0
40.004501 40 0.96969998 255 0 0
41 40.968601 0.003 255 0 0
41 40.968601 0.1025 255 0 0
41 40.968601 0.20190001 255 0 0
41 40.968601 0.30129999 255 0 0
41 40.968601 0.4007 255 0 0
41 40.968601 0.5 255 0 0
41 40.968601 0.59930003 255 0 0
41 40.968601 0.69870001 255 0 0
41 40.968601 0.79809999 255 0 0
41 40.968601 0.89749998 255 0 0
41 40.968601 0.99699998 255 0 0
41 40.905998 0.0046999999 255 0 0
41 40.905998 0.1038 255 0 0
41 40.905998 0.20290001 255 0 0
41 40.905998 0.30199999 255 0 0
41 40.905998 0.40099999 255 0 0
41 40.905998 0.5 255 0 0
41 40.905998 0.59899998 255 0 0
41 40.905998 0.69800001 255 0 0
41 40.905998 0.79710001 255 0 0
41 40.905998 0.8962 255 0 0
41 40.905998 0.99529999 255 0 0
41 40.8438 0.0063 255 0 0
41 40.8438 0.1052 255 0 0
41 40.8438 0.20389999 255 0 0
41 40.8438 0.3026 255 0 0
41 40.8438 0.40130001 255 0 0
41 40.8438 0.5 255 0 0
41 40.8438 0.59869999 255 0 0
41 40.8438 0.69739997 255 0 0
41 40.8438 0.79610002 255 0 0
41 40.8438 0.89480001 255 0 0
41 40.8438 0.99370003 255 0 0
41 40.782001 0.0080000004 255 0 0
41 40.782001 0.1065 255 0 0
41 40.782001 0.2049 255 0 0
41 40.782001 0.30329999 255 0 0
41 40.782001 0.40169999 255 0 0
41 40.782001 0.5 255 0 0
41 40.782001 0.59829998 255 0 0
41 40.782001 0.69669998 255 0 0
41 40.782001 0.79509997 255 0 0
41 40.782001 0.89349997 255 0 0
41 40.782001 0.99199998 255 0 0
41 40.7206 0.0096000005 255 0 0
41 40.7206 0.1078 255 0 0
41 40.7206 0.2059 255 0 0
41 40.7206 0.3039 255 0 0
41 40.7206 0.40200001 255 0 0
41 40.7206 0.5 255 0 0
41 40.7206 0.59799999 255 0 0
41 40.7206 0.6961 255 0 0
41 40.7206 0.79409999 255 0 0
41 40.7206 0.89219999 255 0 0
41 40.7206 0.99040002 255 0 0
41 40.659698 0.0112 255 0 0
41 40.659698 0.109 255 0 0
41 40.659698 0.2068 255 0 0
41 40.659698 0.3046 255 0 0
41 40.659698 0.4023 255 0 0
41 40.659698 0.5 255 0 0
41 40.659698 0.5977 255 0 0
41 40.659698 0.6954 255 0 0
41 40.659698 0.79320002 255 0 0
41 40.659698 0.89099997 255 0 0
41 40.659698 0.98879999 255 0 0
41 40.599098 0.0127 255 0 0
41 40.599098 0.1103 255 0 0
41 40.599098 0.2078 255 0 0
41 40.599098 0.30520001 255 0 0
41 40.599098 0.40259999 255 0 0
41 40.599098 0.5 255 0 0
41 40.599098 0.59740001 255 0 0
41 40.599098 0.69480002 255 0 0
41 40.599098 0.79220003 255 0 0
41 40.599098 0.8897 255 0 0
41 40.599098 0.98729998 255 0 0
41 40.538898 0.0143 255 0 0
41 40.538898 0.1115 255 0 0
41 40.538898 0.2087 255 0 0
41 40.538898 0.30579999 255 0 0
41 40.538898 0.40290001 255 0 0
41 40.538898 0.5 255 0 0
41 40.538898 0.59710002 255 0 0
41 40.538898 0.69419998 255 0 0
41 40.538898 0.7913 255 0 0
41 40.538898 0.88849998 255 0 0
41 40.538898 0.98570001 255 0 0
41 40.479099 0.015799999 255 0 0
41 40.479099 0.1127 255 0 0
41 40.479099 0.2096 255 0 0
41 40.479099 0.3064 255 0 0
41 40.479099 0.4032 255 0 0
41 40.479099 0.5 255 0 0
41 40.479099 0.59680003 255 0 0
41 40.479099 0.6936 255 0 0
41 40.479099 0.79040003 255 0 0
41 40.479099 0.88730001 255 0 0
41 40.479099 0.9842 255 0 0
41 40.419701 0.0173 255 0 0
41 40.419701 0.114 255 0 0
41 40.419701 0.2105 255 0 0
41 40.419701 0.30700001 255 0 0
41 40.419701 0.40349999 255 0 0
41 40.419701 0.5 255 0 0
41 40.419701 0.59649998 255 0 0
41 40.419701 0.69300002 255 0 0
41 40.419701 0.7895 255 0 0
41 40.419701 0.88599998 255 0 0
41 40.419701 0.98269999 255 0 0
41 40.3606 0.0188 255 0 0
41 40.3606 0.1151 255 0 0
41 40.3606 0.2114 255 0 0
41 40.3606 0.30759999 255 0 0
41 40.3606 0.40380001 255 0 0
41 40.3606 0.5 255 0 0
41 40.3606 0.59619999 255 0 0
41 40.3606 0.69239998 255 0 0
41 40.3606 0.78860003 255 0 0
41 40.3606 0.88489997 255 0 0
41 40.3606 0.98119998 255 0 0
41 40.301899 0.020300001 255 0 0
41 40.301899 0.1163 255 0 0
41 40.301899 0.2123 255 0 0
41 40.301899 0.3082 255 0 0
41 40.301899 0.4041 255 0 0
41 40.301899 0.5 255 0 0
41 40.301899 0.5959 255 0 0
41 40.301899 0.6918 255 0 0
41 40.301899 0.7877 255 0 0
41 40.301899 0.88370001 255 0 0
41 40.301899 0.97970003 255 0 0
41 40.243599 0.0218 255 0 0
41 40.243599 0.1175 255 0 0
41 40.243599 0.2132 255 0 0
41 40.243599 0.30880001 255 0 0
41 40.243599 0.40439999 255 0 0
41 40.243599 0.5 255 0 0
41 40.243599 0.59560001 255 0 0
41 40.243599 0.69120002 255 0 0
41 40.243599 0.78680003 255 0 0
41 40.243599 0.88249999 255 0 0
41 40.243599 0.97820002 255 0 0
41 40.1856 0.0232 255 0 0
41 40.1856 0.1186 255 0 0
41 40.1856 0.214 255 0 0
41 40.1856 0.30939999 255 0 0
41 40.1856 0.40470001 255 0 0
41 40.1856 0.5 255 0 0
41 40.1856 0.59530002 255 0 0
41 40.1856 0.69059998 255 0 0
41 40.1856 0.78600001 255 0 0
41 40.1856 0.88139999 255 0 0
41 40.1856 0.97680002 255 0 0
41 40.127899 0.024599999 255 0 0
41 40.127899 0.1198 255 0 0
41 40.127899 0.2149 255 0 0
41 40.127899 0.30989999 255 0 0
41 40.127899 0.405 255 0 0
41 40.127899 0.5 255 0 0
41 40.127899 0.59500003 255 0 0
41 40.127899 0.69010001 255 0 0
41 40.127899 0.78509998 255 0 0
41 40.127899 0.88020003 255 0 0
41 40.127899 0.97539997 255 0 0
41 40.070599 0.026000001 255 0 0
41 40.070599 0.1209 255 0 0
41 40.070599 0.2157 255 0 0
41 40.070599 0.3105 255 0 0
41 40.070599 0.40529999 255 0 0
41 40.070599 0.5 255 0 0
41 40.070599 0.59469998 255 0 0
41 40.070599 0.68949997 255 0 0
41 40.070599 0.78430003 255 0 0
41 40.070599 0.87910002 255 0 0
41 40.070599 0.97399998 255 0 0
41 40.013599 0.0274 255 0 0
41 40.013599 0.122 255 0 0
41 40.013599 0.2166 255 0 0
41 40.013599 0.31110001 255 0 0
41 40.013599 0.40549999 255 0 0
41 40.013599 0.5 255 0 0
41 40.013599 0.59450001 255 0 0
41 40.013599 0.68889999 255 0 0
41 40.013599 0.7834 255 0 0
41 40.013599 0.87800002 255 0 0
41 40.013599 0.97259998 255 0 0
40.935001 40 0.0254 255 0 0
40.935001 40 0.1204 255 0 0
40.935001 40 0.21529999 255 0 0
40.935001 40 0.31029999 255 0 0
40.935001 40 0.40509999 255 0 0
40.935001 40 0.5 255 0 0
40.935001 40 0.59490001 255 0 0
40.935001 40 0.68970001 255 0 0
40.935001 40 0.78469998 255 0 0
40.935001 40 0.87959999 255 0 0
40.935001 40 0.97460002 255 0 0
40.848499 40 0.0222 255 0 0
40.848499 40 0.1179 255 0 0
40.848499 40 0.21340001 255 0 0
40.848499 40 0.30899999 255 0 0
40.848499 40 0.40450001 255 0 0
40.848499 40 0.5 255 0 0
40.848499 40 0.59549999 255 0 0
40.848499 40 0.69099998 255 0 0
40.848499 40 0.78659999 255 0 0
40.848499 40 0.88209999 255 0 0
40.848499 40 0.97780001 255 0 0
40.760899 40 0.018999999 255 0 0
40.760899 40 0.1153 255 0 0
40.760899 40 0.2115 255 0 0
40.760899 40 0.30770001 255 0 0
40.760899 40 0.4039 255 0 0
40.760899 40 0.5 255 0 0
40.760899 40 0.59609997 255 0 0
40.760899 40 0.69230002 255 0 0
40.760899 40 0.78850001 255 0 0
40.760899 40 0.8847 255 0 0
40.760899 40 0.98100001 255 0 0
40.672001 40 0.015799999 255 0 0
40.672001 40 0.1127 255 0 0
40.672001 40 0.2096 255 0 0
40.672001 40 0.3064 255 0 0
40.672001 40 0.4032 255 0 0
40.672001 40 0.5 255 0 0
40.672001 40 0.59680003 255 0 0
40.672001 40 0.6936 255 0 0
40.672001 40 0.79040003 255 0 0
40.672001 40 0.88730001 255 0 0
40.672001 40 0.9842 255 0 0
40.581902 40 0.0124 255 0 0
40.581902 40 0.11 255 0 0
40.581902 40 0.2076 255 0 0
40.581902 40 0.30509999 255 0 0
40.581902 40 0.4025 255 0 0
40.581902 40 0.5 255 0 0
40.581902 40 0.59750003 255 0 0
40.581902 40 0.69489998 255 0 0
40.581902 40 0.7924 255 0 0
40.581902 40 0.88999999 255 0 0
40.581902 40 0.98760003 255 0 0
40.490601 40 0.0091000004 255 0 0
40.490601 40 0.1074 255 0 0
40.490601 40 0.20559999 255 0 0
40.490601 40 0.3037 255 0 0
40.490601 40 0.40189999 255 0 0
40.490601 40 0.5 255 0 0
40.490601 40 0.59810001 255 0 0
40.490601 40 0.69630003 255 0 0
40.490601 40 0.79439998 255 0 0
40.490601 40 0.8926 255 0 0
40.490601 40 0.99089998 255 0 0
40.397999 40 0.0057000001 255 0 0
40.397999 40 0.1046 255 0 0
40.397999 40 0.2035 255 0 0
40.397999 40 0.30239999 255 0 0
40.397999 40 0.4012 255 0 0
40.397999 40 0.5 255 0 0
40.397999 40 0.5988 255 0 0
40.397999 40 0.69760001 255 0 0
40.397999 40 0.79650003 255 0 0
40.397999 40 0.89539999 255 0 0
40.397999 40 0.99430001 255 0 0
40.304199 40 0.0022 255 0 0
40.304199 40 0.1018 255 0 0
40.304199 40 0.2014 255 0 0
40.304199 40 0.301 255 0 0
40.304199 40 0.4005 255 0 0
40.304199 40 0.5 255 0 0
40.304199 40 0.5995 255 0 0
40.304199 40 0.699 255 0 0
40.304199 40 0.79860002 255 0 0
40.304199 40 0.89819998 255 0 0
40.304199 40 0.99779999 255 0 0
40.2089 40 0.098999999 255 0 0
40.2089 40 0.19930001 255 0 0
40.2089 40 0.29960001 255 0 0
40.2089 40 0.3998 255 0 0
40.2089 40 0.5 255 0 0
40.2089 40 0.6002 255 0 0
40.2089 40 0.70039999 255 0 0
40.2089 40 0.80070001 255 0 0
40.2089 40 0.90100002 255 0 0
40.1124 40 0.096100003 255 0 0
40.1124 40 0.1971 255 0 0
40.1124 40 0.29809999 255 0 0
40.1124 40 0.39910001 255 0 0
40.1124 40 0.5 255 0 0
40.1124 40 0.60089999 255 0 0
40.1124 40 0.70190001 255 0 0
40.1124 40 0.80290002 255 0 0
40.1124 40 0.90390003 255 0 0
40.0144 40 0.093199998 255 0 0
40.0144 40 0.19490001 255 0 0
40.0144 40 0.2967 255 0 0
40.0144 40 0.39829999 255 0 0
40.0144 40 0.5 255 0 0
40.0144 40 0.60170001 255 0 0
40.0144 40 0.7033 255 0 0
40.0144 40 0.80510002 255 0 0
40.0144 40 0.90679997 255 0 0
41 40.960098 0.070699997 255 0 0
41 40.960098 0.1566 255 0 0
41 40.960098 0.24250001 255 0 0
41 40.960098 0.32839999 255 0 0
41 40.960098 0.41420001 255 0 0
41 40.960098 0.5 255 0 0
41 40.960098 0.58579999 255 0 0
41 40.960098 0.67159998 255 0 0
41 40.960098 0.75749999 255 0 0
41 40.960098 0.8434 255 0 0
41 40.960098 0.92930001 255 0 0
41 40.9133 0.071500003 255 0 0
41 40.9133 0.1573 255 0 0
41 40.9133 0.243 255 0 0
41 40.9133 0.32870001 255 0 0
41 40.9133 0.41440001 255 0 0
41 40.9133 0.5 255 0 0
41 40.9133 0.58560002 255 0 0
41 40.9133 0.67129999 255 0 0
41 40.9133 0.75700003 255 0 0
41 40.9133 0.8427 255 0 0
41 40.9133 0.9285 255 0 0
41 40.866699 0.072300002 255 0 0
41 40.866699 0.15790001 255 0 0
41 40.866699 0.24349999 255 0 0
41 40.866699 0.329 255 0 0
41 40.866699 0.4145 255 0 0
41 40.866699 0.5 255 0 0
41 40.866699 0.5855 255 0 0
41 40.866699 0.671 255 0 0
41 40.866699 0.75650001 255 0 0
41 40.866699 0.84210002 255 0 0
41 40.866699 0.92769998 255 0 0
41 40.820301 0.073100001 255 0 0
41 40.820301 0.1586 255 0 0
41 40.820301 0.244 255 0 0
41 40.820301 0.32929999 255 0 0
41 40.820301 0.4147 255 0 0
41 40.820301 0.5 255 0 0
41 40.820301 0.58530003 255 0 0
41 40.820301 0.67070001 255 0 0
41 40.820301 0.75599998 255 0 0
41 40.820301 0.84140003 255 0 0
41 40.820301 0.92690003 255 0 0
41 40.773998 0.073899999 255 0 0
41 40.773998 0.1592 255 0 0
41 40.773998 0.24439999 255 0 0
41 40.773998 0.32969999 255 0 0
41 40.773998 0.41479999 255 0 0
41 40.773998 0.5 255 0 0
41 40.773998 0.58520001 255 0 0
41 40.773998 0.67030001 255 0 0
41 40.773998 0.75559998 255 0 0
41 40.773998 0.84079999 255 0 0
41 40.773998 0.92610002 255 0 0
41 40.727901 0.074699998 255 0 0
41 40.727901 0.15979999 255 0 0
41 40.727901 0.2449 255 0 0
41 40.727901 0.33000001 255 0 0
41 40.727901 0.41499999 255 0 0
41 40.727901 0.5 255 0 0
41 40.727901 0.58499998 255 0 0
41 40.727901 0.67000002 255 0 0
41 40.727901 0.75510001 255 0 0
41 40.727901 0.84020001 255 0 0
41 40.727901 0.9253 255 0 0
41 40.681999 0.075400002 255 0 0
41 40.681999 0.1604 255 0 0
41 40.681999 0.2454 255 0 0
41 40.681999 0.3303 255 0 0
41 40.681999 0.41510001 255 0 0
41 40.681999 0.5 255 0 0
41 40.681999 0.58490002 255 0 0
41 40.681999 0.66970003 255 0 0
41 40.681999 0.75459999 255 0 0
41 40.681999 0.83960003 255 0 0
41 40.681999 0.92460001 255 0 0
41 40.636299 0.076200001 255 0 0
41 40.636299 0.161 255 0 0
41 40.636299 0.2458 255 0 0
41 40.636299 0.33059999 255 0 0
41 40.636299 0.41530001 255 0 0
41 40.636299 0.5 255 0 0
41 40.636299 0.58469999 255 0 0
41 40.636299 0.66939998 255 0 0
41 40.636299 0.75419998 255 0 0
41 40.636299 0.83899999 255 0 0
41 40.636299 0.92379999 255 0 0
41 40.590698 0.076899998 255 0 0
41 40.590698 0.16159999 255 0 0
41 40.590698 0.2463 255 0 0
41 40.590698 0.33090001 255 0 0
41 40.590698 0.4154 255 0 0
41 40.590698 0.5 255 0 0
41 40.590698 0.58459997 255 0 0
41 40.590698 0.66909999 255 0 0
41 40.590698 0.75370002 255 0 0
41 40.590698 0.83840001 255 0 0
41 40.590698 0.92309999 255 0 0
41 40.5452 0.077699997 255 0 0
41 40.5452 0.1622 255 0 0
41 40.5452 0.2467 255 0 0
41 40.5452 0.3312 255 0 0
41 40.5452 0.4156 255 0 0
41 40.5452 0.5 255 0 0
41 40.5452 0.5844 255 0 0
41 40.5452 0.6688 255 0 0
41 40.5452 0.75330001 255 0 0
41 40.5452 0.83780003 255 0 0
41 40.5452 0.92229998 255 0 0
41 40.499901 0.078400001 255 0 0
41 40.499901 0.1628 255 0 0
41 40.499901 0.2471 255 0 0
41 40.499901 0.33140001 255 0 0
41 40.499901 0.41569999 255 0 0
41 40.499901 0.5 255 0 0
41 40.499901 0.58429998 255 0 0
41 40.499901 0.66860002 255 0 0
41 40.499901 0.7529 255 0 0
41 40.499901 0.83719999 255 0 0
41 40.499901 0.92159998 255 0 0
41 40.4548 0.079099998 255 0 0
41 40.4548 0.16339999 255 0 0
41 40.4548 0.2476 255 0 0
41 40.4548 0.3317 255 0 0
41 40.4548 0.41589999 255 0 0
41 40.4548 0.5 255 0 0
41 40.4548 0.58410001 255 0 0
41 40.4548 0.66829997 255 0 0
41 40.4548 0.75239998 255 0 0
41 40.4548 0.83660001 255 0 0
41 40.4548 0.92089999 255 0 0
41 40.409801 0.079800002 255 0 0
41 40.409801 0.1639 255 0 0
41 40.409801 0.248 255 0 0
41 40.409801 0.33199999 255 0 0
41 40.409801 0.41600001 255 0 0
41 40.409801 0.5 255 0 0
41 40.409801 0.58399999 255 0 0
41 40.409801 0.66799998 255 0 0
41 40.409801 0.75199997 255 0 0
41 40.409801 0.83609998 255 0 0
41 40.409801 0.92019999 255 0 0
41 40.365002 0.080499999 255 0 0
41 40.365002 0.1645 255 0 0
41 40.365002 0.2484 255 0 0
41 40.365002 0.33230001 255 0 0
41 40.365002 0.4161 255 0 0
41 40.365002 0.5 255 0 0
41 40.365002 0.58389997 255 0 0
41 40.365002 0.66769999 255 0 0
41 40.365002 0.75160003 255 0 0
41 40.365002 0.8355 255 0 0
41 40.365002 0.91949999 255 0 0
41 40.320301 0.081200004 255 0 0
41 40.320301 0.16500001 255 0 0
41 40.320301 0.24879999 255 0 0
41 40.320301 0.3326 255 0 0
41 40.320301 0.4163 255 0 0
41 40.320301 0.5 255 0 0
41 40.320301 0.5837 255 0 0
41 40.320301 0.6674 255 0 0
41 40.320301 0.75120002 255 0 0
41 40.320301 0.83499998 255 0 0
41 40.320301 0.9188 255 0 0
41 40.275799 0.081799999 255 0 0
41 40.275799 0.1655 255 0 0
41 40.275799 0.2492 255 0 0
41 40.275799 0.3328 255 0 0
41 40.275799 0.41639999 255 0 0
41 40.275799 0.5 255 0 0
41 40.275799 0.58359998 255 0 0
41 40.275799 0.66720003 255 0 0
41 40.275799 0.75080001 255 0 0
41 40.275799 0.83450001 255 0 0
41 40.275799 0.91820002 255 0 0
41 40.2314 0.082500003 255 0 0
41 40.2314 0.1661 255 0 0
41 40.2314 0.24959999 255 0 0
41 40.2314 0.33309999 255 0 0
41 40.2314 0.4165 255 0 0
41 40.2314 0.5 255 0 0
41 40.2314 0.58350003 255 0 0
41 40.2314 0.66689998 255 0 0
41 40.2314 0.75040001 255 0 0
41 40.2314 0.83389997 255 0 0
41 40.2314 0.91750002 255 0 0
41 40.187099 0.083099999 255 0 0
41 40.187099 0.1666 255 0 0
41 40.187099 0.25 255 0 0
41 40.187099 0.33329999 255 0 0
41 40.187099 0.41670001 255 0 0
41 40.187099 0.5 255 0 0
41 40.187099 0.58329999 255 0 0
41 40.187099 0.66670001 255 0 0
41 40.187099 0.75 255 0 0
41 40.187099 0.83340001 255 0 0
41 40.187099 0.91689998 255 0 0
41 40.143002 0.083800003 255 0 0
41 40.143002 0.1671 255 0 0
41 40.143002 0.25040001 255 0 0
41 40.143002 0.33360001 255 0 0
41 40.143002 0.41679999 255 0 0
41 40.143002 0.5 255 0 0
41 40.143002 0.58319998 255 0 0
41 40.143002 0.66640002 255 0 0
41 40.143002 0.74959999 255 0 0
41 40.143002 0.83289999 255 0 0
41 40.143002 0.91619998 255 0 0
41 40.143002 0.99959999 255 0 0
41 40.098999 0.0012000001 255 0 0
41 40.098999 0.084399998 255 0 0
41 40.098999 0.16760001 255 0 0
41 40.098999 0.2507 255 0 0
41 40.098999 0.3339 255 0 0
41 40.098999 0.41690001 255 0 0
41 40.098999 0.5 255 0 0
41 40.098999 0.58310002 255 0 0
41 40.098999 0.66610003 255 0 0
41 40.098999 0.7493 255 0 0
41 40.098999 0.83240002 255 0 0
41 40.098999 0.9156 255 0 0
41 40.098999 0.99879998 255 0 0
41 40.055099 0.0019 255 0 0
41 40.055099 0.085000001 255 0 0
41 40.055099 0.1681 255 0 0
41 40.055099 0.2511 255 0 0
41 40.055099 0.33410001 255 0 0
41 40.055099 0.41710001 255 0 0
41 40.055099 0.5 255 0 0
41 40.055099 0.58289999 255 0 0
41 40.055099 0.66589999 255 0 0
41 40.055099 0.7489 255 0 0
41 40.055099 0.8319 255 0 0
41 40.055099 0.91500002 255 0 0
41 40.055099 0.99809998 255 0 0
41 40.011398 0.0026 255 0 0
41 40.011398 0.085600004 255 0 0
41 40.011398 0.16859999 255 0 0
41 40.011398 0.25150001 255 0 0
41 40.011398 0.33430001 255 0 0
41 40.011398 0.4172 255 0 0
41 40.011398 0.5 255 0 0
41 40.011398 0.58279997 255 0 0
41 40.011398 0.66570002 255 0 0
41 40.011398 0.74849999 255 0 0
41 40.011398 0.83139998 255 0 0
41 40.011398 0.91439998 255 0 0
41 40.011398 0.99739999 255 0 0
40.902302 40 0.081699997 255 0 0
40.902302 40 0.1655 255 0 0
40.902302 40 0.2492 255 0 0
40.902302 40 0.3328 255 0 0
40.902302 40 0.41639999 255 0 0
40.902302 40 0.5 255 0 0
40.902302 40 0.58359998 255 0 0
40.902302 40 0.66720003 255 0 0
40.902302 40 0.75080001 255 0 0
40.902302 40 0.83450001 255 0 0
40.902302 40 0.91829997 255 0 0
40.766998 40 0.076099999 255 0 0
40.766998 40 0.161 255 0 0
40.766998 40 0.2458 255 0 0
40.766998 40 0.33050001 255 0 0
40.766998 40 0.41530001 255 0 0
40.766998 40 0.5 255 0 0
40.766998 40 0.58469999 255 0 0
40.766998 40 0.66949999 255 0 0
40.766998 40 0.75419998 255 0 0
40.766998 40 0.83899999 255 0 0
40.766998 40 0.92390001 255 0 0
40.628101 40 0.0704 255 0 0
40.628101 40 0.1564 255 0 0
40.628101 40 0.2423 255 0 0
40.628101 40 0.32820001 255 0 0
40.628101 40 0.41409999 255 0 0
40.628101 40 0.5 255 0 0
40.628101 40 0.58590001 255 0 0
40.628101 40 0.67180002 255 0 0
40.628101 40 0.75770003 255 0 0
40.628101 40 0.84359998 255 0 0
40.628101 40 0.9296 255 0 0
40.485298 40 0.064400002 255 0 0
40.485298 40 0.1516 255 0 0
40.485298 40 0.2388 255 0 0
40.485298 40 0.32589999 255 0 0
40.485298 40 0.4129 255 0 0
40.485298 40 0.5 255 0 0
40.485298 40 0.58710003 255 0 0
40.485298 40 0.67409998 255 0 0
40.485298 40 0.76120001 255 0 0
40.485298 40 0.8484 255 0 0
40.485298 40 0.93559998 255 0 0
40.338501 40 0.0583 255 0 0
40.338501 40 0.14669999 255 0 0
40.338501 40 0.2351 255 0 0
40.338501 40 0.32339999 255 0 0
40.338501 40 0.41170001 255 0 0
40.338501 40 0.5 255 0 0
40.338501 40 0.58829999 255 0 0
40.338501 40 0.67659998 255 0 0
40.338501 40 0.76490003 255 0 0
40.338501 40 0.85329998 255 0 0
40.338501 40 0.94169998 255 0 0
40.1875 40 0.052000001 255 0 0
40.1875 40 0.1417 255 0 0
40.1875 40 0.2313 255 0 0
40.1875 40 0.32089999 255 0 0
40.1875 40 0.41049999 255 0 0
40.1875 40 0.5 255 0 0
40.1875 40 0.58950001 255 0 0
40.1875 40 0.67909998 255 0 0
40.1875 40 0.7687 255 0 0
40.1875 40 0.85829997 255 0 0
40.1875 40 0.94800001 255 0 0
40.0322 40 0.045499999 255 0 0
40.0322 40 0.1365 255 0 0
40.0322 40 0.2274 255 0 0
40.0322 40 0.31830001 255 0 0
40.0322 40 0.40920001 255 0 0
40.0322 40 0.5 255 0 0
40.0322 40 0.59079999 255 0 0
40.0322 40 0.68169999 255 0 0
40.0322 40 0.7726 255 0 0
40.0322 40 0.8635 255 0 0
40.0322 40 0.95450002 255 0 0
40.1698 41 0.061999999 255 0 0
40.1698 41 0.1497 255 0 0
40.1698 41 0.23729999 255 0 0
40.1698 41 0.3249 255 0 0
40.1698 41 0.41249999 255 0 0
40.1698 41 0.5 255 0 0
40.1698 41 0.58749998 255 0 0
40.1698 41 0.67510003 255 0 0
40.1698 41 0.76270002 255 0 0
40.1698 41 0.85030001 255 0 0
40.1698 41 0.93800002 255 0 0
40.384701 41 0.071199998 255 0 0
40.384701 41 0.15700001 255 0 0
40.384701 41 0.2428 255 0 0
40.384701 41 0.32859999 255 0 0
40.384701 41 0.41429999 255 0 0
40.384701 41 0.5 255 0 0
40.384701 41 0.58569998 255 0 0
40.384701 41 0.67140001 255 0 0
40.384701 41 0.7572 255 0 0
40.384701 41 0.84299999 255 0 0
40.384701 41 0.92879999 255 0 0
40.5909 41 0.079999998 255 0 0
40.5909 41 0.16410001 255 0 0
40.5909 41 0.2481 255 0 0
40.5909 41 0.3321 255 0 0
40.5909 41 0.4161 255 0 0
40.5909 41 0.5 255 0 0
40.5909 41 0.58389997 255 0 0
40.5909 41 0.66790003 255 0 0
40.5909 41 0.75190002 255 0 0
40.5909 41 0.83590001 255 0 0
40.5909 41 0.92000002 255 0 0
40.7887 41 0.0060000001 255 0 0
40.7887 41 0.088500001 255 0 0
40.7887 41 0.1708 255 0 0
40.7887 41 0.25319999 255 0 0
40.7887 41 0.3355 255 0 0
40.7887 41 0.41769999 255 0 0
40.7887 41 0.5 255 0 0
40.7887 41 0.58230001 255 0 0
40.7887 41 0.6645 255 0 0
40.7887 41 0.74680001 255 0 0
40.7887 41 0.82920003 255 0 0
40.7887 41 0.91149998 255 0 0
40.7887 41 0.99400002 255 0 0
40.978699 41 0.015699999 255 0 0
40.978699 41 0.096600004 255 0 0
40.978699 41 0.17730001 255 0 0
40.978699 41 0.25799999 255 0 0
40.978699 41 0.3387 255 0 0
40.978699 41 0.41940001 255 0 0
40.978699 41 0.5 255 0 0
40.978699 41 0.58060002 255 0 0
40.978699 41 0.6613 255 0 0
40.978699 41 0.74199998 255 0 0
40.978699 41 0.82270002 255 0 0
40.978699 41 0.9034 255 0 0
40.978699 41 0.98430002 255 0 0
41 40.963501 0.0164 255 0 0
41 40.963501 0.097099997 255 0 0
41 40.963501 0.1778 255 0 0
41 40.963501 0.25839999 255 0 0
41 40.963501 0.3389 255 0 0
41 40.963501 0.41949999 255 0 0
41 40.963501 0.5 255 0 0
41 40.963501 0.58050001 255 0 0
41 40.963501 0.66109997 255 0 0
41 40.963501 0.74159998 255 0 0
41 40.963501 0.8222 255 0 0
41 40.963501 0.90289998 255 0 0
41 40.963501 0.98360002 255 0 0
41 40.922199 0.015900001 255 0 0
41 40.922199 0.096699998 255 0 0
41 40.922199 0.17739999 255 0 0
41 40.922199 0.2581 255 0 0
41 40.922199 0.33880001 255 0 0
41 40.922199 0.41940001 255 0 0
41 40.922199 0.5 255 0 0
41 40.922199 0.58060002 255 0 0
41 40.922199 0.66119999 255 0 0
41 40.922199 0.74190003 255 0 0
41 40.922199 0.82260001 255 0 0
41 40.922199 0.90329999 255 0 0
41 40.922199 0.98409998 255 0 0
41 40.880798 0.0154 255 0 0
41 40.880798 0.096299998 255 0 0
41 40.880798 0.1771 255 0 0
41 40.880798 0.2579 255 0 0
41 40.880798 0.33860001 255 0 0
41 40.880798 0.41929999 255 0 0
41 40.880798 0.5 255 0 0
41 40.880798 0.58069998 255 0 0
41 40.880798 0.66140002 255 0 0
41 40.880798 0.7421 255 0 0
41 40.880798 0.8229 255 0 0
41 40.880798 0.90369999 255 0 0
41 40.880798 0.98460001 255 0 0
41 40.839298 0.0149 255 0 0
41 40.839298 0.095899999 255 0 0
41 40.839298 0.1768 255 0 0
41 40.839298 0.25760001 255 0 0
41 40.839298 0.33840001 255 0 0
41 40.839298 0.4192 255 0 0
41 40.839298 0.5 255 0 0
41 40.839298 0.5808 255 0 0
41 40.839298 0.66159999 255 0 0
41 40.839298 0.74239999 255 0 0
41 40.839298 0.82319999 255 0 0
41 40.839298 0.9041 255 0 0
41 40.839298 0.98509997 255 0 0
41 40.797699 0.0144 255 0 0
41 40.797699 0.0955 255 0 0
41 40.797699 0.17640001 255 0 0
41 40.797699 0.25740001 255 0 0
41 40.797699 0.33829999 255 0 0
41 40.797699 0.41909999 255 0 0
41 40.797699 0.5 255 0 0
41 40.797699 0.58090001 255 0 0
41 40.797699 0.66170001 255 0 0
41 40.797699 0.74260002 255 0 0
41 40.797699 0.82359999 255 0 0
41 40.797699 0.90450001 255 0 0
41 40.797699 0.98559999 255 0 0
41 40.756001 0.0139 255 0 0
41 40.756001 0.094999999 255 0 0
41 40.756001 0.1761 255 0 0
41 40.756001 0.25709999 255 0 0
41 40.756001 0.33809999 255 0 0
41 40.756001 0.41909999 255 0 0
41 40.756001 0.5 255 0 0
41 40.756001 0.58090001 255 0 0
41 40.756001 0.66189998 255 0 0
41 40.756001 0.74290001 255 0 0
41 40.756001 0.82389998 255 0 0
41 40.756001 0.90499997 255 0 0
41 40.756001 0.98610002 255 0 0
41 40.714298 0.0134 255 0 0
41 40.714298 0.094599999 255 0 0
41 40.714298 0.17569999 255 0 0
41 40.714298 0.2568 255 0 0
41 40.714298 0.33790001 255 0 0
41 40.714298 0.419 255 0 0
41 40.714298 0.5 255 0 0
41 40.714298 0.58099997 255 0 0
41 40.714298 0.66210002 255 0 0
41 40.714298 0.7432 255 0 0
41 40.714298 0.82429999 255 0 0
41 40.714298 0.90539998 255 0 0
41 40.714298 0.98659998 255 0 0
41 40.672401 0.0128 255 0 0
41 40.672401 0.094099998 255 0 0
41 40.672401 0.1754 255 0 0
41 40.672401 0.25659999 255 0 0
41 40.672401 0.33770001 255 0 0
41 40.672401 0.41890001 255 0 0
41 40.672401 0.5 255 0 0
41 40.672401 0.58109999 255 0 0
41 40.672401 0.66229999 255 0 0
41 40.672401 0.74339998 255 0 0
41 40.672401 0.82459998 255 0 0
41 40.672401 0.9059 255 0 0
41 40.672401 0.98720002 255 0 0
41 40.630501 0.0123 255 0 0
41 40.630501 0.093699999 255 0 0
41 40.630501 0.175 255 0 0
41 40.630501 0.2563 255 0 0
41 40.630501 0.33759999 255 0 0
41 40.630501 0.4188 255 0 0
41 40.630501 0.5 255 0 0
41 40.630501 0.5812 255 0 0
41 40.630501 0.66240001 255 0 0
41 40.630501 0.74370003 255 0 0
41 40.630501 0.82499999 255 0 0
41 40.630501 0.90630001 255 0 0
41 40.630501 0.98769999 255 0 0
41 40.588402 0.0117 255 0 0
41 40.588402 0.093199998 255 0 0
41 40.588402 0.17460001 255 0 0
41 40.588402 0.25600001 255 0 0
41 40.588402 0.33739999 255 0 0
41 40.588402 0.41870001 255 0 0
41 40.588402 0.5 255 0 0
41 40.588402 0.58130002 255 0 0
41 40.588402 0.66259998 255 0 0
41 40.588402 0.74400002 255 0 0
41 40.588402 0.82539999 255 0 0
41 40.588402 0.90679997 255 0 0
41 40.588402 0.98830003 255 0 0
41 40.546299 0.0111 255 0 0
41 40.546299 0.092699997 255 0 0
41 40.546299 0.1742 255 0 0
41 40.546299 0.25569999 255 0 0
41 40.546299 0.33719999 255 0 0
41 40.546299 0.41859999 255 0 0
41 40.546299 0.5 255 0 0
41 40.546299 0.58139998 255 0 0
41 40.546299 0.66280001 255 0 0
41 40.546299 0.74430001 255 0 0
41 40.546299 0.8258 255 0 0
41 40.546299 0.9073 255 0 0
41 40.546299 0.98890001 255 0 0
41 40.504101 0.0105 255 0 0
41 40.504101 0.092200004 255 0 0
41 40.504101 0.17389999 255 0 0
41 40.504101 0.2554 255 0 0
41 40.504101 0.33700001 255 0 0
41 40.504101 0.41850001 255 0 0
41 40.504101 0.5 255 0 0
41 40.504101 0.58149999 255 0 0
41 40.504101 0.66299999 255 0 0
41 40.504101 0.7446 255 0 0
41 40.504101 0.82609999 255 0 0
41 40.504101 0.90780002 255 0 0
41 40.504101 0.98949999 255 0 0
41 40.4617 0.0098999999 255 0 0
41 40.4617 0.091700003 255 0 0
41 40.4617 0.1735 255 0 0
41 40.4617 0.25510001 255 0 0
41 40.4617 0.33680001 255 0 0
41 40.4617 0.41839999 255 0 0
41 40.4617 0.5 255 0 0
41 40.4617 0.58160001 255 0 0
41 40.4617 0.66320002 255 0 0
41 40.4617 0.74489999 255 0 0
41 40.4617 0.8265 255 0 0
41 40.4617 0.90829998 255 0 0
41 40.4617 0.99010003 255 0 0
41 40.4193 0.0093 255 0 0
41 40.4193 0.091200002 255 0 0
41 40.4193 0.17299999 255 0 0
41 40.4193 0.25479999 255 0 0
41 40.4193 0.33660001 255 0 0
41 40.4193 0.4183 255 0 0
41 40.4193 0.5 255 0 0
41 40.4193 0.58170003 255 0 0
41 40.4193 0.66339999 255 0 0
41 40.4193 0.74519998 255 0 0
41 40.4193 0.82700002 255 0 0
41 40.4193 0.90880001 255 0 0
41 40.4193 0.99070001 255 0 0
41 40.376701 0.0087000001 255 0 0
41 40.376701 0.090700001 255 0 0
41 40.376701 0.1726 255 0 0
41 40.376701 0.2545 255 0 0
41 40.376701 0.3364 255 0 0
41 40.376701 0.41819999 255 0 0
41 40.376701 0.5 255 0 0
41 40.376701 0.58179998 255 0 0
41 40.376701 0.66360003 255 0 0
41 40.376701 0.74550003 255 0 0
41 40.376701 0.82740003 255 0 0
41 40.376701 0.90930003 255 0 0
41 40.376701 0.99129999 255 0 0
41 40.334099 0.0081000002 255 0 0
41 40.334099 0.0902 255 0 0
41 40.334099 0.17219999 255 0 0
41 40.334099 0.25420001 255 0 0
41 40.334099 0.3362 255 0 0
41 40.334099 0.4181 255 0 0
41 40.334099 0.5 255 0 0
41 40.334099 0.5819 255 0 0
41 40.334099 0.6638 255 0 0
41 40.334099 0.74580002 255 0 0
41 40.334099 0.82779998 255 0 0
41 40.334099 0.90979999 255 0 0
41 40.334099 0.99190003 255 0 0
41 40.291302 0.0074 255 0 0
41 40.291302 0.089599997 255 0 0
41 40.291302 0.1718 255 0 0
41 40.291302 0.25389999 255 0 0
41 40.291302 0.33590001 255 0 0
41 40.291302 0.41800001 255 0 0
41 40.291302 0.5 255 0 0
41 40.291302 0.58200002 255 0 0
41 40.291302 0.66409999 255 0 0
41 40.291302 0.74610001 255 0 0
41 40.291302 0.82819998 255 0 0
41 40.291302 0.91039997 255 0 0
41 40.291302 0.99260002 255 0 0
41 40.248402 0.0068000001 255 0 0
41 40.248402 0.089100003 255 0 0
41 40.248402 0.1714 255 0 0
41 40.248402 0.2536 255 0 0
41 40.248402 0.33570001 255 0 0
41 40.248402 0.4179 255 0 0
41 40.248402 0.5 255 0 0
41 40.248402 0.58209997 255 0 0
41 40.248402 0.66430002 255 0 0
41 40.248402 0.7464 255 0 0
41 40.248402 0.82859999 255 0 0
41 40.248402 0.9109 255 0 0
41 40.248402 0.9932 255 0 0
41 40.205399 0.0060999999 255 0 0
41 40.205399 0.088500001 255 0 0
41 40.205399 0.1709 255 0 0
41 40.205399 0.25319999 255 0 0
41 40.205399 0.3355 255 0 0
41 40.205399 0.41780001 255 0 0
41 40.205399 0.5 255 0 0
41 40.205399 0.58219999 255 0 0
41 40.205399 0.6645 255 0 0
41 40.205399 0.74680001 255 0 0
41 40.205399 0.82910001 255 0 0
41 40.205399 0.91149998 255 0 0
41 40.205399 0.9939 255 0 0
41 40.1623 0.0054000001 255 0 0
41 40.1623 0.088 255 0 0
41 40.1623 0.1705 255 0 0
41 40.1623 0.2529 255 0 0
41 40.1623 0.3353 255 0 0
41 40.1623 0.41760001 255 0 0
41 40.1623 0.5 255 0 0
41 40.1623 0.58240002 255 0 0
41 40.1623 0.66469997 255 0 0
41 40.1623 0.7471 255 0 0
41 40.1623 0.82950002 255 0 0
41 40.1623 0.912 255 0 0
41 40.1623 0.9946 255 0 0
41 40.119099 0.0048000002 255 0 0
41 40.119099 0.087399997 255 0 0
41 40.119099 0.17 255 0 0
41 40.119099 0.2525 255 0 0
41 40.119099 0.3351 255 0 0
41 40.119099 0.41749999 255 0 0
41 40.119099 0.5 255 0 0
41 40.119099 0.58249998 255 0 0
41 40.119099 0.6649 255 0 0
41 40.119099 0.7475 255 0 0
41 40.119099 0.82999998 255 0 0
41 40.119099 0.91259998 255 0 0
41 40.119099 0.99519998 255 0 0
41 40.075699 0.0041 255 0 0
41 40.075699 0.086800002 255 0 0
41 40.075699 0.16949999 255 0 0
41 40.075699 0.25220001 255 0 0
41 40.075699 0.3348 255 0 0
41 40.075699 0.4174 255 0 0
41 40.075699 0.5 255 0 0
41 40.075699 0.5826 255 0 0
41 40.075699 0.6652 255 0 0
41 40.075699 0.74779999 255 0 0
41 40.075699 0.83050001 255 0 0
41 40.075699 0.91320002 255 0 0
41 40.075699 0.99589998 255 0 0
41 40.0322 0.0033 255 0 0
41 40.0322 0.086199999 255 0 0
41 40.0322 0.1691 255 0 0
41 40.0322 0.2518 255 0 0
41 40.0322 0.3346 255 0 0
41 40.0322 0.41729999 255 0 0
41 40.0322 0.5 255 0 0
41 40.0322 0.58270001 255 0 0
41 40.0322 0.66540003 255 0 0
41 40.0322 0.7482 255 0 0
41 40.0322 0.83090001 255 0 0
41 40.0322 0.9138 255 0 0
41 40.0322 0.99669999 255 0 0
40.0802 41 0.015 255 0 0
40.0802 41 0.1121 255 0 0
40.0802 41 0.20909999 255 0 0
40.0802 41 0.30610001 255 0 0
40.0802 41 0.40310001 255 0 0
40.0802 41 0.5 255 0 0
40.0802 41 0.59689999 255 0 0
40.0802 41 0.69389999 255 0 0
40.0802 41 0.79089999 255 0 0
40.0802 41 0.88789999 255 0 0
40.0802 41 0.98500001 255 0 0
40.187 41 0.019099999 255 0 0
40.187 41 0.1154 255 0 0
40.187 41 0.21160001 255 0 0
40.187 41 0.30779999 255 0 0
40.187 41 0.4039 255 0 0
40.187 41 0.5 255 0 0
40.187 41 0.59609997 255 0 0
40.187 41 0.69220001 255 0 0
40.187 41 0.78839999 255 0 0
40.187 41 0.88459998 255 0 0
40.187 41 0.98089999 255 0 0
40.292 41 0.0232 255 0 0
40.292 41 0.1187 255 0 0
40.292 41 0.2141 255 0 0
40.292 41 0.30939999 255 0 0
40.292 41 0.40470001 255 0 0
40.292 41 0.5 255 0 0
40.292 41 0.59530002 255 0 0
40.292 41 0.69059998 255 0 0
40.292 41 0.7859 255 0 0
40.292 41 0.88129997 255 0 0
40.292 41 0.97680002 255 0 0
40.3951 41 0.0272 255 0 0
40.3951 41 0.1219 255 0 0
40.3951 41 0.2164 255 0 0
40.3951 41 0.31099999 255 0 0
40.3951 41 0.40549999 255 0 0
40.3951 41 0.5 255 0 0
40.3951 41 0.59450001 255 0 0
40.3951 41 0.68900001 255 0 0
40.3951 41 0.78359997 255 0 0
40.3951 41 0.87809998 255 0 0
40.3951 41 0.97280002 255 0 0
40.496601 41 0.031099999 255 0 0
40.496601 41 0.125 255 0 0
40.496601 41 0.21879999 255 0 0
40.496601 41 0.31259999 255 0 0
40.496601 41 0.40630001 255 0 0
40.496601 41 0.5 255 0 0
40.496601 41 0.59369999 255 0 0
40.496601 41 0.68739998 255 0 0
40.496601 41 0.78119999 255 0 0
40.496601 41 0.875 255 0 0
40.496601 41 0.96890002 255 0 0
40.596401 41 0.035 255 0 0
40.596401 41 0.12809999 255 0 0
40.596401 41 0.2211 255 0 0
40.596401 41 0.3141 255 0 0
40.596401 41 0.40709999 255 0 0
40.596401 41 0.5 255 0 0
40.596401 41 0.59289998 255 0 0
40.596401 41 0.68589997 255 0 0
40.596401 41 0.77890003 255 0 0
40.596401 41 0.87190002 255 0 0
40.596401 41 0.96499997 255 0 0
40.694599 41 0.038800001 255 0 0
40.694599 41 0.1311 255 0 0
40.694599 41 0.2234 255 0 0
40.694599 41 0.31560001 255 0 0
40.694599 41 0.40779999 255 0 0
40.694599 41 0.5 255 0 0
40.694599 41 0.59219998 255 0 0
40.694599 41 0.68440002 255 0 0
40.694599 41 0.7766 255 0 0
40.694599 41 0.8689 255 0 0
40.694599 41 0.9612 255 0 0
40.791199 41 0.0425 255 0 0
40.791199 41 0.13410001 255 0 0
40.791199 41 0.2256 255 0 0
40.791199 41 0.31709999 255 0 0
40.791199 41 0.4086 255 0 0
40.791199 41 0.5 255 0 0
40.791199 41 0.59140003 255 0 0
40.791199 41 0.68290001 255 0 0
40.791199 41 0.7744 255 0 0
40.791199 41 0.86589998 255 0 0
40.791199 41 0.95749998 255 0 0
40.886299 41 0.046100002 255 0 0
40.886299 41 0.13699999 255 0 0
40.886299 41 0.2278 255 0 0
40.886299 41 0.3186 255 0 0
40.886299 41 0.4093 255 0 0
40.886299 41 0.5 255 0 0
40.886299 41 0.59069997 255 0 0
40.886299 41 0.6814 255 0 0
40.886299 41 0.77219999 255 0 0
40.886299 41 0.86299998 255 0 0
40.886299 41 0.95389998 255 0 0
40.979801 41 0.049699999 255 0 0
40.979801 41 0.1399 255 0 0
40.979801 41 0.2299 255 0 0
40.979801 41 0.31999999 255 0 0
40.979801 41 0.41 255 0 0
40.979801 41 0.5 255 0 0
40.979801 41 0.58999997 255 0 0
40.979801 41 0.68000001 255 0 0
40.979801 41 0.7701 255 0 0
40.979801 41 0.86009997 255 0 0
40.979801 41 0.95029998 255 0 0
41 40.959702 0.049600001 255 0 0
41 40.959702 0.1398 255 0 0
