ply
format ascii 1.0
comment PCL generated
element vertex 1639
property float x
property float y
property float z
property uchar red
property uchar green
property uchar blue
element camera 0
property float view_px
property float view_py
property float view_pz
property float x_axisx
property float x_axisy
property float x_axisz
property float y_axisx
property float y_axisy
property float y_axisz
property float z_axisx
property float z_axisy
property float z_axisz
property float focal
property float scalex
property float scaley
property float centerx
property float centery
property int viewportx
property int viewporty
property float k1
property float k2
end_header
46 50.5229 2.3110001 0 0 255
46 50.5229 2.3889 0 0 255
46 50.5229 2.4670999 0 0 255
46 50.5229 2.5455 0 0 255
46 50.5229 2.6243 0 0 255
46 50.5229 2.7035 0 0 255
46 50.5229 2.783 0 0 255
46 50.5229 2.8629 0 0 255
46 50.5229 2.9431 0 0 255
46 50.5229 3.0237999 0 0 255
46 50.5229 3.1048999 0 0 255
46 50.5229 3.1863999 0 0 255
46 50.5229 3.2684 0 0 255
46 50.5229 3.3508 0 0 255
46 50.5229 3.4338 0 0 255
46 50.5229 3.5172 0 0 255
46 50.5229 3.6011 0 0 255
46 50.444401 0.057100002 0 0 255
46 50.444401 0.131 0 0 255
46 50.444401 0.2049 0 0 255
46 50.444401 0.27869999 0 0 255
46 50.444401 0.35249999 0 0 255
46 50.444401 0.4262 0 0 255
46 50.444401 0.5 0 0 255
46 50.444401 0.57380003 0 0 255
46 50.444401 0.64749998 0 0 255
46 50.444401 0.72130001 0 0 255
46 50.444401 0.79509997 0 0 255
46 50.444401 0.86900002 0 0 255
46 50.444401 0.9429 0 0 255
46 50.444401 1.0168999 0 0 255
46 50.444401 1.0908999 0 0 255
46 50.444401 1.1651 0 0 255
46 50.444401 1.2394 0 0 255
46 50.444401 1.3137 0 0 255
46 50.444401 1.3882 0 0 255
46 50.444401 1.4629 0 0 255
46 50.444401 1.5376 0 0 255
46 50.444401 1.6126 0 0 255
46 50.444401 1.6877 0 0 255
46 50.444401 1.763 0 0 255
46 50.444401 1.8385 0 0 255
46 50.444401 1.9141999 0 0 255
46 50.444401 1.9901 0 0 255
46 50.444401 2.1427 0 0 255
46 50.444401 2.2193999 0 0 255
46 50.444401 2.2962999 0 0 255
46 50.444401 2.3735001 0 0 255
46 50.444401 2.4511001 0 0 255
46 50.444401 2.5288999 0 0 255
46 50.444401 2.6071 0 0 255
46 50.444401 2.6856 0 0 255
46 50.444401 2.7644 0 0 255
46 50.444401 2.8436999 0 0 255
46 50.444401 2.9233 0 0 255
46 50.444401 3.0033 0 0 255
46 50.444401 3.0836999 0 0 255
46 50.444401 3.1645999 0 0 255
46 50.444401 3.2458999 0 0 255
46 50.444401 3.3276999 0 0 255
46 50.444401 3.4099 0 0 255
46 50.444401 3.4926 0 0 255
46 50.444401 3.5759001 0 0 255
46 50.3671 0.060699999 0 0 255
46 50.3671 0.134 0 0 255
46 50.3671 0.20730001 0 0 255
46 50.3671 0.28049999 0 0 255
46 50.3671 0.35370001 0 0 255
46 50.3671 0.42680001 0 0 255
46 50.3671 0.5 0 0 255
46 50.3671 0.57319999 0 0 255
46 50.3671 0.64630002 0 0 255
46 50.3671 0.71950001 0 0 255
46 50.3671 0.79269999 0 0 255
46 50.3671 0.866 0 0 255
46 50.3671 0.9393 0 0 255
46 50.3671 1.0127 0 0 255
46 50.3671 1.0862 0 0 255
46 50.3671 1.1598001 0 0 255
46 50.3671 1.2334 0 0 255
46 50.3671 1.3072 0 0 255
46 50.3671 1.3811001 0 0 255
46 50.3671 1.4551001 0 0 255
46 50.3671 1.5293 0 0 255
46 50.3671 1.6036 0 0 255
46 50.3671 1.6782 0 0 255
46 50.3671 1.7528 0 0 255
46 50.3671 1.8277 0 0 255
46 50.3671 1.9028 0 0 255
46 50.3671 1.9780999 0 0 255
46 50.3671 2.1294999 0 0 255
46 50.3671 2.2054999 0 0 255
46 50.3671 2.2818999 0 0 255
46 50.3671 2.3585 0 0 255
46 50.3671 2.4354 0 0 255
46 50.3671 2.5125999 0 0 255
46 50.3671 2.5901 0 0 255
46 50.3671 2.668 0 0 255
46 50.3671 2.7462001 0 0 255
46 50.3671 2.8248 0 0 255
46 50.3671 2.9038 0 0 255
46 50.3671 2.9830999 0 0 255
46 50.3671 3.0629001 0 0 255
46 50.3671 3.1431 0 0 255
46 50.3671 3.2237999 0 0 255
46 50.3671 3.3048999 0 0 255
46 50.3671 3.3864999 0 0 255
46 50.3671 3.4686 0 0 255
46 50.3671 3.5511999 0 0 255
46 50.2911 0.064199999 0 0 255
46 50.2911 0.13689999 0 0 255
46 50.2911 0.2096 0 0 255
46 50.2911 0.28220001 0 0 255
46 50.2911 0.35479999 0 0 255
46 50.2911 0.42739999 0 0 255
46 50.2911 0.5 0 0 255
46 50.2911 0.57260001 0 0 255
46 50.2911 0.64520001 0 0 255
46 50.2911 0.71780002 0 0 255
46 50.2911 0.79040003 0 0 255
46 50.2911 0.86309999 0 0 255
46 50.2911 0.93580002 0 0 255
46 50.2911 1.0086 0 0 255
46 50.2911 1.0815001 0 0 255
46 50.2911 1.1545 0 0 255
46 50.2911 1.2276 0 0 255
46 50.2911 1.3008 0 0 255
46 50.2911 1.3741 0 0 255
46 50.2911 1.4475 0 0 255
46 50.2911 1.5211 0 0 255
46 50.2911 1.5949 0 0 255
46 50.2911 1.6688 0 0 255
46 50.2911 1.7429 0 0 255
46 50.2911 1.8171999 0 0 255
46 50.2911 1.8917 0 0 255
46 50.2911 1.9664 0 0 255
46 50.2911 2.1164999 0 0 255
46 50.2911 2.1919999 0 0 255
46 50.2911 2.2677 0 0 255
46 50.2911 2.3436999 0 0 255
46 50.2911 2.4200001 0 0 255
46 50.2911 2.4965 0 0 255
46 50.2911 2.5734999 0 0 255
46 50.2911 2.6507001 0 0 255
46 50.2911 2.7283001 0 0 255
46 50.2911 2.8062999 0 0 255
46 50.2911 2.8845999 0 0 255
46 50.2911 2.9633999 0 0 255
46 50.2911 3.0425 0 0 255
46 50.2911 3.1221001 0 0 255
46 50.2911 3.2021 0 0 255
46 50.2911 3.2825999 0 0 255
46 50.2911 3.3635001 0 0 255
46 50.2911 3.4449 0 0 255
46 50.2911 3.5269001 0 0 255
46 50.216202 0.067599997 0 0 255
46 50.216202 0.1398 0 0 255
46 50.216202 0.2119 0 0 255
46 50.216202 0.28389999 0 0 255
46 50.216202 0.35600001 0 0 255
46 50.216202 0.428 0 0 255
46 50.216202 0.5 0 0 255
46 50.216202 0.57200003 0 0 255
46 50.216202 0.64399999 0 0 255
46 50.216202 0.71609998 0 0 255
46 50.216202 0.7881 0 0 255
46 50.216202 0.86019999 0 0 255
46 50.216202 0.93239999 0 0 255
46 50.216202 1.0046 0 0 255
46 50.216202 1.0769 0 0 255
46 50.216202 1.1493 0 0 255
46 50.216202 1.2218 0 0 255
46 50.216202 1.2945 0 0 255
46 50.216202 1.3672 0 0 255
46 50.216202 1.4400001 0 0 255
46 50.216202 1.5131 0 0 255
46 50.216202 1.5862 0 0 255
46 50.216202 1.6596 0 0 255
46 50.216202 1.7331001 0 0 255
46 50.216202 1.8068 0 0 255
46 50.216202 1.8807 0 0 255
46 50.216202 1.9548 0 0 255
46 50.216202 2.1038001 0 0 255
46 50.216202 2.1786001 0 0 255
46 50.216202 2.2537 0 0 255
46 50.216202 2.3290999 0 0 255
46 50.216202 2.4047999 0 0 255
46 50.216202 2.4807999 0 0 255
46 50.216202 2.5571001 0 0 255
46 50.216202 2.6338 0 0 255
46 50.216202 2.7107999 0 0 255
46 50.216202 2.7881 0 0 255
46 50.216202 2.8657999 0 0 255
46 50.216202 2.944 0 0 255
46 50.216202 3.0225 0 0 255
46 50.216202 3.1013999 0 0 255
46 50.216202 3.1808 0 0 255
46 50.216202 3.2606001 0 0 255
46 50.216202 3.3408999 0 0 255
46 50.216202 3.4217 0 0 255
46 50.216202 3.503 0 0 255
46 50.142502 0.071000002 0 0 255
46 50.142502 0.1426 0 0 255
46 50.142502 0.2141 0 0 255
46 50.142502 0.28560001 0 0 255
46 50.142502 0.35710001 0 0 255
46 50.142502 0.42860001 0 0 255
46 50.142502 0.5 0 0 255
46 50.142502 0.57139999 0 0 255
46 50.142502 0.64289999 0 0 255
46 50.142502 0.71439999 0 0 255
46 50.142502 0.7859 0 0 255
46 50.142502 0.8574 0 0 255
46 50.142502 0.92900002 0 0 255
46 50.142502 1.0007 0 0 255
46 50.142502 1.0724 0 0 255
46 50.142502 1.1443 0 0 255
46 50.142502 1.2162 0 0 255
46 50.142502 1.2883 0 0 255
46 50.142502 1.3604 0 0 255
46 50.142502 1.4327 0 0 255
46 50.142502 1.5052 0 0 255
46 50.142502 1.5777 0 0 255
46 50.142502 1.6505001 0 0 255
46 50.142502 1.7235 0 0 255
46 50.142502 1.7966 0 0 255
46 50.142502 1.8699 0 0 255
46 50.142502 1.9435 0 0 255
46 50.142502 2.0913 0 0 255
46 50.142502 2.1654999 0 0 255
46 50.142502 2.2400999 0 0 255
46 50.142502 2.3148999 0 0 255
46 50.142502 2.3900001 0 0 255
46 50.142502 2.4654 0 0 255
46 50.142502 2.5411 0 0 255
46 50.142502 2.6171 0 0 255
46 50.142502 2.6935 0 0 255
46 50.142502 2.7702999 0 0 255
46 50.142502 2.8474 0 0 255
46 50.142502 2.9249001 0 0 255
46 50.142502 3.0028 0 0 255
46 50.142502 3.0811 0 0 255
46 50.142502 3.1599 0 0 255
46 50.142502 3.2391 0 0 255
46 50.142502 3.3188 0 0 255
46 50.142502 3.3989 0 0 255
46 50.142502 3.4796 0 0 255
46 50.07 0.0031999999 0 0 255
46 50.07 0.074299999 0 0 255
46 50.07 0.1453 0 0 255
46 50.07 0.2163 0 0 255
46 50.07 0.28729999 0 0 255
46 50.07 0.35820001 0 0 255
46 50.07 0.42910001 0 0 255
46 50.07 0.5 0 0 255
46 50.07 0.57090002 0 0 255
46 50.07 0.64179999 0 0 255
46 50.07 0.71270001 0 0 255
46 50.07 0.78369999 0 0 255
46 50.07 0.85470003 0 0 255
46 50.07 0.92570001 0 0 255
46 50.07 0.99680001 0 0 255
46 50.07 1.068 0 0 255
46 50.07 1.1393 0 0 255
46 50.07 1.2107 0 0 255
46 50.07 1.2822 0 0 255
46 50.07 1.3538001 0 0 255
46 50.07 1.4255 0 0 255
46 50.07 1.4974 0 0 255
46 50.07 1.5694 0 0 255
46 50.07 1.6416 0 0 255
46 50.07 1.714 0 0 255
46 50.07 1.7866 0 0 255
46 50.07 1.8593 0 0 255
46 50.07 1.9323 0 0 255
46 50.07 2.0055001 0 0 255
46 50.07 2.079 0 0 255
46 50.07 2.1526999 0 0 255
46 50.07 2.2265999 0 0 255
46 50.07 2.3008001 0 0 255
46 50.07 2.3754001 0 0 255
46 50.07 2.4502001 0 0 255
46 50.07 2.5253 0 0 255
46 50.07 2.6008 0 0 255
46 50.07 2.6766 0 0 255
46 50.07 2.7527001 0 0 255
46 50.07 2.8292999 0 0 255
46 50.07 2.9061999 0 0 255
46 50.07 2.9835 0 0 255
46 50.07 3.0611999 0 0 255
46 50.07 3.1394 0 0 255
46 50.07 3.2179999 0 0 255
46 50.07 3.2969999 0 0 255
46 50.07 3.3764999 0 0 255
46 50.07 3.4566 0 0 255
45.999199 50 0.0068999999 0 0 255
45.999199 50 0.077500001 0 0 255
45.999199 50 0.148 0 0 255
45.999199 50 0.2184 0 0 255
45.999199 50 0.28889999 0 0 255
45.999199 50 0.35929999 0 0 255
45.999199 50 0.4296 0 0 255
45.999199 50 0.5 0 0 255
45.999199 50 0.5704 0 0 255
45.999199 50 0.64069998 0 0 255
45.999199 50 0.71109998 0 0 255
45.999199 50 0.7816 0 0 255
45.999199 50 0.852 0 0 255
45.999199 50 0.92250001 0 0 255
45.999199 50 0.99309999 0 0 255
45.999199 50 1.0638 0 0 255
45.999199 50 1.1345 0 0 255
45.999199 50 1.2054 0 0 255
45.999199 50 1.2763 0 0 255
45.999199 50 1.3474 0 0 255
45.999199 50 1.4186 0 0 255
45.999199 50 1.49 0 0 255
45.999199 50 1.5615 0 0 255
45.999199 50 1.6331 0 0 255
45.999199 50 1.705 0 0 255
45.999199 50 1.777 0 0 255
45.999199 50 1.8492 0 0 255
45.999199 50 1.9217 0 0 255
45.999199 50 1.9943 0 0 255
45.999199 50 2.0671999 0 0 255
45.999199 50 2.1403999 0 0 255
45.999199 50 2.2138 0 0 255
45.999199 50 2.2874 0 0 255
45.999199 50 2.3613999 0 0 255
45.999199 50 2.4356999 0 0 255
45.999199 50 2.5102 0 0 255
45.999199 50 2.5850999 0 0 255
45.999199 50 2.6603999 0 0 255
45.999199 50 2.7360001 0 0 255
45.999199 50 2.8118999 0 0 255
45.999199 50 2.8882999 0 0 255
45.999199 50 2.9649999 0 0 255
45.999199 50 3.0421 0 0 255
45.999199 50 3.1197 0 0 255
45.999199 50 3.1977 0 0 255
45.999199 50 3.2762001 0 0 255
45.999199 50 3.3550999 0 0 255
45.999199 50 3.4346001 0 0 255
45.958599 50 0.0055999998 0 0 255
45.958599 50 0.076399997 0 0 255
45.958599 50 0.1471 0 0 255
45.958599 50 0.2177 0 0 255
45.958599 50 0.28830001 0 0 255
45.958599 50 0.35890001 0 0 255
45.958599 50 0.42950001 0 0 255
45.958599 50 0.5 0 0 255
45.958599 50 0.57050002 0 0 255
45.958599 50 0.64109999 0 0 255
45.958599 50 0.71170002 0 0 255
45.958599 50 0.7823 0 0 255
45.958599 50 0.85290003 0 0 255
45.958599 50 0.92360002 0 0 255
45.958599 50 0.99440002 0 0 255
45.958599 50 1.0652 0 0 255
45.958599 50 1.1361001 0 0 255
45.958599 50 1.2072001 0 0 255
45.958599 50 1.2783 0 0 255
45.958599 50 1.3494999 0 0 255
45.958599 50 1.4209 0 0 255
45.958599 50 1.4924999 0 0 255
45.958599 50 1.5641 0 0 255
45.958599 50 1.636 0 0 255
45.958599 50 1.7079999 0 0 255
45.958599 50 1.7802 0 0 255
45.958599 50 1.8526 0 0 255
45.958599 50 1.9252 0 0 255
45.958599 50 1.9981 0 0 255
45.958599 50 2.0711999 0 0 255
45.958599 50 2.1445 0 0 255
45.958599 50 2.2181001 0 0 255
45.958599 50 2.2918999 0 0 255
45.958599 50 2.3661001 0 0 255
45.958599 50 2.4405 0 0 255
45.958599 50 2.5153 0 0 255
45.958599 50 2.5904 0 0 255
45.958599 50 2.6658001 0 0 255
45.958599 50 2.7416 0 0 255
45.958599 50 2.8176999 0 0 255
45.958599 50 2.8943 0 0 255
45.958599 50 2.9712 0 0 255
45.958599 50 3.0485001 0 0 255
45.958599 50 3.1263001 0 0 255
45.958599 50 3.2045 0 0 255
45.958599 50 3.2832 0 0 255
45.958599 50 3.3622999 0 0 255
45.958599 50 3.4419 0 0 255
45.917702 50 0.0044 0 0 255
45.917702 50 0.075300001 0 0 255
45.917702 50 0.1462 0 0 255
45.917702 50 0.21699999 0 0 255
45.917702 50 0.28780001 0 0 255
45.917702 50 0.35859999 0 0 255
45.917702 50 0.42930001 0 0 255
45.917702 50 0.5 0 0 255
45.917702 50 0.57069999 0 0 255
45.917702 50 0.64139998 0 0 255
45.917702 50 0.71219999 0 0 255
45.917702 50 0.78299999 0 0 255
45.917702 50 0.8538 0 0 255
45.917702 50 0.92470002 0 0 255
45.917702 50 0.99559999 0 0 255
45.917702 50 1.0666 0 0 255
45.917702 50 1.1377 0 0 255
45.917702 50 1.209 0 0 255
45.917702 50 1.2803 0 0 255
45.917702 50 1.3516999 0 0 255
45.917702 50 1.4233 0 0 255
45.917702 50 1.495 0 0 255
45.917702 50 1.5668 0 0 255
45.917702 50 1.6389 0 0 255
45.917702 50 1.7111 0 0 255
45.917702 50 1.7834001 0 0 255
45.917702 50 1.8559999 0 0 255
45.917702 50 1.9288 0 0 255
45.917702 50 2.0019 0 0 255
45.917702 50 2.0750999 0 0 255
45.917702 50 2.1487 0 0 255
45.917702 50 2.2224 0 0 255
45.917702 50 2.2965 0 0 255
45.917702 50 2.3708 0 0 255
45.917702 50 2.4454 0 0 255
45.917702 50 2.5204 0 0 255
45.917702 50 2.5957 0 0 255
45.917702 50 2.6712999 0 0 255
45.917702 50 2.7472999 0 0 255
45.917702 50 2.8236001 0 0 255
45.917702 50 2.9003 0 0 255
45.917702 50 2.9775 0 0 255
45.917702 50 3.0550001 0 0 255
45.917702 50 3.1329 0 0 255
45.917702 50 3.2114 0 0 255
45.917702 50 3.2902 0 0 255
45.917702 50 3.3696001 0 0 255
45.917702 50 3.4493999 0 0 255
45.876701 50 0.0031000001 0 0 255
45.876701 50 0.074199997 0 0 255
45.876701 50 0.1453 0 0 255
45.876701 50 0.2163 0 0 255
45.876701 50 0.28729999 0 0 255
45.876701 50 0.35820001 0 0 255
45.876701 50 0.42910001 0 0 255
45.876701 50 0.5 0 0 255
45.876701 50 0.57090002 0 0 255
45.876701 50 0.64179999 0 0 255
45.876701 50 0.71270001 0 0 255
45.876701 50 0.78369999 0 0 255
45.876701 50 0.85470003 0 0 255
45.876701 50 0.92580003 0 0 255
45.876701 50 0.99690002 0 0 255
45.876701 50 1.0681 0 0 255
45.876701 50 1.1394 0 0 255
45.876701 50 1.2108001 0 0 255
45.876701 50 1.2823 0 0 255
45.876701 50 1.3539 0 0 255
45.876701 50 1.4256001 0 0 255
45.876701 50 1.4974999 0 0 255
45.876701 50 1.5696 0 0 255
45.876701 50 1.6418 0 0 255
45.876701 50 1.7142 0 0 255
45.876701 50 1.7867 0 0 255
45.876701 50 1.8595001 0 0 255
45.876701 50 1.9325 0 0 255
45.876701 50 2.0057001 0 0 255
45.876701 50 2.0792 0 0 255
45.876701 50 2.1529 0 0 255
45.876701 50 2.2268 0 0 255
45.876701 50 2.3011 0 0 255
45.876701 50 2.3756001 0 0 255
45.876701 50 2.4504001 0 0 255
45.876701 50 2.5256 0 0 255
45.876701 50 2.6010001 0 0 255
45.876701 50 2.6768999 0 0 255
45.876701 50 2.753 0 0 255
45.876701 50 2.8296001 0 0 255
45.876701 50 2.9065001 0 0 255
45.876701 50 2.9837999 0 0 255
45.876701 50 3.0615001 0 0 255
45.876701 50 3.1396999 0 0 255
45.876701 50 3.2183001 0 0 255
45.876701 50 3.2974 0 0 255
45.876701 50 3.3769 0 0 255
45.876701 50 3.4568999 0 0 255
45.835499 50 0.0018 0 0 255
45.835499 50 0.073100001 0 0 255
45.835499 50 0.1444 0 0 255
45.835499 50 0.2156 0 0 255
45.835499 50 0.28670001 0 0 255
45.835499 50 0.35780001 0 0 255
45.835499 50 0.4289 0 0 255
45.835499 50 0.5 0 0 255
45.835499 50 0.5711 0 0 255
45.835499 50 0.64219999 0 0 255
45.835499 50 0.71329999 0 0 255
45.835499 50 0.78439999 0 0 255
45.835499 50 0.8556 0 0 255
45.835499 50 0.92690003 0 0 255
45.835499 50 0.9982 0 0 255
45.835499 50 1.0696 0 0 255
45.835499 50 1.141 0 0 255
45.835499 50 1.2126 0 0 255
45.835499 50 1.2843 0 0 255
45.835499 50 1.3561 0 0 255
45.835499 50 1.428 0 0 255
45.835499 50 1.5001 0 0 255
45.835499 50 1.5723 0 0 255
45.835499 50 1.6447001 0 0 255
45.835499 50 1.7173001 0 0 255
45.835499 50 1.7901 0 0 255
45.835499 50 1.863 0 0 255
45.835499 50 1.9362 0 0 255
45.835499 50 2.0095999 0 0 255
45.835499 50 2.0833001 0 0 255
45.835499 50 2.1571 0 0 255
45.835499 50 2.2313001 0 0 255
45.835499 50 2.3057001 0 0 255
45.835499 50 2.3805001 0 0 255
45.835499 50 2.4554999 0 0 255
45.835499 50 2.5308001 0 0 255
45.835499 50 2.6064999 0 0 255
45.835499 50 2.6824999 0 0 255
45.835499 50 2.7588 0 0 255
45.835499 50 2.8355999 0 0 255
45.835499 50 2.9126999 0 0 255
45.835499 50 2.9902 0 0 255
45.835499 50 3.0682001 0 0 255
45.835499 50 3.1465001 0 0 255
45.835499 50 3.2253001 0 0 255
45.835499 50 3.3046 0 0 255
45.835499 50 3.3843 0 0 255
45.835499 50 3.4646001 0 0 255
45.793999 50 0.071999997 0 0 255
45.793999 50 0.1434 0 0 255
45.793999 50 0.2148 0 0 255
45.793999 50 0.28619999 0 0 255
45.793999 50 0.35749999 0 0 255
45.793999 50 0.4287 0 0 255
45.793999 50 0.5 0 0 255
45.793999 50 0.57130003 0 0 255
45.793999 50 0.64249998 0 0 255
45.793999 50 0.71380001 0 0 255
45.793999 50 0.7852 0 0 255
45.793999 50 0.85659999 0 0 255
45.793999 50 0.92799997 0 0 255
45.793999 50 0.99949998 0 0 255
45.793999 50 1.0711 0 0 255
45.793999 50 1.1427 0 0 255
45.793999 50 1.2145 0 0 255
45.793999 50 1.2862999 0 0 255
45.793999 50 1.3583 0 0 255
45.793999 50 1.4304 0 0 255
45.793999 50 1.5027 0 0 255
45.793999 50 1.5750999 0 0 255
45.793999 50 1.6477 0 0 255
45.793999 50 1.7205 0 0 255
45.793999 50 1.7934 0 0 255
45.793999 50 1.8666 0 0 255
45.793999 50 1.9400001 0 0 255
45.793999 50 2.0874 0 0 255
45.793999 50 2.1615 0 0 255
45.793999 50 2.2358 0 0 255
45.793999 50 2.3104999 0 0 255
45.793999 50 2.3854001 0 0 255
45.793999 50 2.4605999 0 0 255
45.793999 50 2.5360999 0 0 255
45.793999 50 2.612 0 0 255
45.793999 50 2.6882 0 0 255
45.793999 50 2.7646999 0 0 255
45.793999 50 2.8417001 0 0 255
45.793999 50 2.9189999 0 0 255
45.793999 50 2.9967 0 0 255
45.793999 50 3.0748999 0 0 255
45.793999 50 3.1533999 0 0 255
45.793999 50 3.2323999 0 0 255
45.793999 50 3.3118999 0 0 255
45.793999 50 3.3919001 0 0 255
45.793999 50 3.4723001 0 0 255
45.7523 50 0.070900001 0 0 255
45.7523 50 0.1425 0 0 255
45.7523 50 0.2141 0 0 255
45.7523 50 0.28560001 0 0 255
45.7523 50 0.35710001 0 0 255
45.7523 50 0.4285 0 0 255
45.7523 50 0.5 0 0 255
45.7523 50 0.5715 0 0 255
45.7523 50 0.64289999 0 0 255
45.7523 50 0.71439999 0 0 255
45.7523 50 0.7859 0 0 255
45.7523 50 0.85750002 0 0 255
45.7523 50 0.92909998 0 0 255
45.7523 50 1.0008 0 0 255
45.7523 50 1.0726 0 0 255
45.7523 50 1.1444 0 0 255
45.7523 50 1.2164 0 0 255
45.7523 50 1.2884001 0 0 255
45.7523 50 1.3606 0 0 255
45.7523 50 1.4329 0 0 255
45.7523 50 1.5053999 0 0 255
45.7523 50 1.5779999 0 0 255
45.7523 50 1.6507 0 0 255
45.7523 50 1.7237 0 0 255
45.7523 50 1.7968 0 0 255
45.7523 50 1.8702 0 0 255
45.7523 50 1.9438 0 0 255
45.7523 50 2.0915999 0 0 255
45.7523 50 2.1659 0 0 255
45.7523 50 2.2404001 0 0 255
45.7523 50 2.3152001 0 0 255
45.7523 50 2.3903 0 0 255
45.7523 50 2.4658 0 0 255
45.7523 50 2.5415001 0 0 255
45.7523 50 2.6176 0 0 255
45.7523 50 2.694 0 0 255
45.7523 50 2.7707 0 0 255
45.7523 50 2.8478999 0 0 255
45.7523 50 2.9254 0 0 255
45.7523 50 3.0033 0 0 255
45.7523 50 3.0817001 0 0 255
45.7523 50 3.1603999 0 0 255
45.7523 50 3.2397001 0 0 255
45.7523 50 3.3192999 0 0 255
45.7523 50 3.3994999 0 0 255
45.7523 50 3.4802001 0 0 255
45.7104 50 0.069700003 0 0 255
45.7104 50 0.1416 0 0 255
45.7104 50 0.2133 0 0 255
45.7104 50 0.285 0 0 255
45.7104 50 0.3567 0 0 255
45.7104 50 0.42840001 0 0 255
45.7104 50 0.5 0 0 255
45.7104 50 0.57160002 0 0 255
45.7104 50 0.6433 0 0 255
45.7104 50 0.71499997 0 0 255
45.7104 50 0.78670001 0 0 255
45.7104 50 0.85839999 0 0 255
45.7104 50 0.9303 0 0 255
45.7104 50 1.0021 0 0 255
45.7104 50 1.0741 0 0 255
45.7104 50 1.1461 0 0 255
45.7104 50 1.2183 0 0 255
45.7104 50 1.2905 0 0 255
45.7104 50 1.3629 0 0 255
45.7104 50 1.4354 0 0 255
45.7104 50 1.508 0 0 255
45.7104 50 1.5808001 0 0 255
45.7104 50 1.6538 0 0 255
45.7104 50 1.727 0 0 255
45.7104 50 1.8003 0 0 255
45.7104 50 1.8738 0 0 255
45.7104 50 1.9476 0 0 255
45.7104 50 2.0957999 0 0 255
45.7104 50 2.1703 0 0 255
45.7104 50 2.2449999 0 0 255
45.7104 50 2.3201001 0 0 255
45.7104 50 2.3954 0 0 255
45.7104 50 2.471 0 0 255
45.7104 50 2.5469 0 0 255
45.7104 50 2.6231999 0 0 255
45.7104 50 2.6998 0 0 255
45.7104 50 2.7767999 0 0 255
45.7104 50 2.8541 0 0 255
45.7104 50 2.9317999 0 0 255
45.7104 50 3.01 0 0 255
45.7104 50 3.0885 0 0 255
45.7104 50 3.1675 0 0 255
45.7104 50 3.247 0 0 255
45.7104 50 3.3269 0 0 255
45.7104 50 3.4072001 0 0 255
45.7104 50 3.4881001 0 0 255
45.668301 50 0.068599999 0 0 255
45.668301 50 0.1406 0 0 255
45.668301 50 0.21250001 0 0 255
45.668301 50 0.28439999 0 0 255
45.668301 50 0.3563 0 0 255
45.668301 50 0.42820001 0 0 255
45.668301 50 0.5 0 0 255
45.668301 50 0.57179999 0 0 255
45.668301 50 0.6437 0 0 255
45.668301 50 0.71560001 0 0 255
45.668301 50 0.78750002 0 0 255
45.668301 50 0.85939997 0 0 255
45.668301 50 0.9314 0 0 255
45.668301 50 1.0035 0 0 255
45.668301 50 1.0756 0 0 255
45.668301 50 1.1479 0 0 255
45.668301 50 1.2201999 0 0 255
45.668301 50 1.2926 0 0 255
45.668301 50 1.3652 0 0 255
45.668301 50 1.4378999 0 0 255
45.668301 50 1.5107 0 0 255
45.668301 50 1.5836999 0 0 255
45.668301 50 1.6569 0 0 255
45.668301 50 1.7302999 0 0 255
45.668301 50 1.8038 0 0 255
45.668301 50 1.8775001 0 0 255
45.668301 50 1.9515001 0 0 255
45.668301 50 2.1001 0 0 255
45.668301 50 2.1747999 0 0 255
45.668301 50 2.2497001 0 0 255
45.668301 50 2.325 0 0 255
45.668301 50 2.4005001 0 0 255
45.668301 50 2.4763 0 0 255
45.668301 50 2.5524001 0 0 255
45.668301 50 2.6289001 0 0 255
45.668301 50 2.7056999 0 0 255
45.668301 50 2.7829001 0 0 255
45.668301 50 2.8604 0 0 255
45.668301 50 2.9384 0 0 255
45.668301 50 3.0167 0 0 255
45.668301 50 3.0955 0 0 255
45.668301 50 3.1747 0 0 255
45.668301 50 3.2543001 0 0 255
45.668301 50 3.3345001 0 0 255
45.668301 50 3.4151001 0 0 255
45.668301 50 3.4962001 0 0 255
45.6259 50 0.067400001 0 0 255
45.6259 50 0.13959999 0 0 255
45.6259 50 0.21179999 0 0 255
45.6259 50 0.28389999 0 0 255
45.6259 50 0.35589999 0 0 255
45.6259 50 0.428 0 0 255
45.6259 50 0.5 0 0 255
45.6259 50 0.57200003 0 0 255
45.6259 50 0.64410001 0 0 255
45.6259 50 0.71609998 0 0 255
45.6259 50 0.78820002 0 0 255
45.6259 50 0.86040002 0 0 255
45.6259 50 0.93260002 0 0 255
45.6259 50 1.0049 0 0 255
45.6259 50 1.0772001 0 0 255
45.6259 50 1.1496 0 0 255
45.6259 50 1.2222 0 0 255
45.6259 50 1.2948 0 0 255
45.6259 50 1.3676 0 0 255
45.6259 50 1.4405 0 0 255
45.6259 50 1.5135 0 0 255
45.6259 50 1.5867 0 0 255
45.6259 50 1.6601 0 0 255
45.6259 50 1.7336 0 0 255
45.6259 50 1.8073 0 0 255
45.6259 50 1.8813 0 0 255
45.6259 50 1.9554 0 0 255
45.6259 50 2.1045001 0 0 255
45.6259 50 2.1793001 0 0 255
45.6259 50 2.2544999 0 0 255
45.6259 50 2.3299 0 0 255
45.6259 50 2.4056001 0 0 255
45.6259 50 2.4816999 0 0 255
45.6259 50 2.5580001 0 0 255
45.6259 50 2.6347001 0 0 255
45.6259 50 2.7117 0 0 255
45.6259 50 2.7890999 0 0 255
45.6259 50 2.8669 0 0 255
45.6259 50 2.9449999 0 0 255
45.6259 50 3.0236001 0 0 255
45.6259 50 3.1025 0 0 255
45.6259 50 3.1819999 0 0 255
45.6259 50 3.2618001 0 0 255
45.6259 50 3.3422 0 0 255
45.6259 50 3.4230001 0 0 255
45.6259 50 3.5043001 0 0 255
45.583302 50 0.066200003 0 0 255
45.583302 50 0.13860001 0 0 255
45.583302 50 0.211 0 0 255
45.583302 50 0.28330001 0 0 255
45.583302 50 0.35550001 0 0 255
45.583302 50 0.4278 0 0 255
45.583302 50 0.5 0 0 255
45.583302 50 0.5722 0 0 255
45.583302 50 0.64450002 0 0 255
45.583302 50 0.71670002 0 0 255
45.583302 50 0.78899997 0 0 255
45.583302 50 0.86140001 0 0 255
45.583302 50 0.93379998 0 0 255
45.583302 50 1.0062 0 0 255
45.583302 50 1.0788 0 0 255
45.583302 50 1.1514 0 0 255
45.583302 50 1.2241 0 0 255
45.583302 50 1.2970001 0 0 255
45.583302 50 1.3699 0 0 255
45.583302 50 1.443 0 0 255
45.583302 50 1.5163 0 0 255
45.583302 50 1.5897 0 0 255
45.583302 50 1.6632 0 0 255
45.583302 50 1.737 0 0 255
45.583302 50 1.8109 0 0 255
45.583302 50 1.8851 0 0 255
45.583302 50 1.9594001 0 0 255
45.583302 50 2.1089001 0 0 255
45.583302 50 2.1839001 0 0 255
45.583302 50 2.2593 0 0 255
45.583302 50 2.3348999 0 0 255
45.583302 50 2.4109001 0 0 255
45.583302 50 2.4870999 0 0 255
45.583302 50 2.5637 0 0 255
45.583302 50 2.6405001 0 0 255
45.583302 50 2.7177999 0 0 255
45.583302 50 2.7953999 0 0 255
45.583302 50 2.8734 0 0 255
45.583302 50 2.9517 0 0 255
45.583302 50 3.0304999 0 0 255
45.583302 50 3.1097 0 0 255
45.583302 50 3.1893001 0 0 255
45.583302 50 3.2693999 0 0 255
45.583302 50 3.3499999 0 0 255
45.583302 50 3.431 0 0 255
45.583302 50 3.5125 0 0 255
45.540501 50 0.064999998 0 0 255
45.540501 50 0.1376 0 0 255
45.540501 50 0.2102 0 0 255
45.540501 50 0.2827 0 0 255
45.540501 50 0.35510001 0 0 255
45.540501 50 0.4276 0 0 255
45.540501 50 0.5 0 0 255
45.540501 50 0.57239997 0 0 255
45.540501 50 0.64490002 0 0 255
45.540501 50 0.7173 0 0 255
45.540501 50 0.78979999 0 0 255
45.540501 50 0.8624 0 0 255
45.540501 50 0.935 0 0 255
45.540501 50 1.0075999 0 0 255
45.540501 50 1.0804 0 0 255
45.540501 50 1.1532 0 0 255
45.540501 50 1.2261 0 0 255
45.540501 50 1.2992001 0 0 255
45.540501 50 1.3723 0 0 255
45.540501 50 1.4456 0 0 255
45.540501 50 1.5191 0 0 255
45.540501 50 1.5927 0 0 255
45.540501 50 1.6665 0 0 255
45.540501 50 1.7404 0 0 255
45.540501 50 1.8146 0 0 255
45.540501 50 1.8889 0 0 255
45.540501 50 1.9635 0 0 255
45.540501 50 2.1133001 0 0 255
45.540501 50 2.1886001 0 0 255
45.540501 50 2.2642 0 0 255
45.540501 50 2.3399999 0 0 255
45.540501 50 2.4161999 0 0 255
45.540501 50 2.4926 0 0 255
45.540501 50 2.5694001 0 0 255
45.540501 50 2.6465001 0 0 255
45.540501 50 2.7239001 0 0 255
45.540501 50 2.8017001 0 0 255
45.540501 50 2.8799 0 0 255
45.540501 50 2.9584999 0 0 255
45.540501 50 3.0374999 0 0 255
45.540501 50 3.1169 0 0 255
45.540501 50 3.1968 0 0 255
45.540501 50 3.2771001 0 0 255
45.540501 50 3.3578999 0 0 255
45.540501 50 3.4391 0 0 255
45.540501 50 3.5209 0 0 255
45.497501 50 0.0638 0 0 255
45.497501 50 0.1366 0 0 255
45.497501 50 0.2094 0 0 255
45.497501 50 0.28209999 0 0 255
45.497501 50 0.3547 0 0 255
45.497501 50 0.42739999 0 0 255
45.497501 50 0.5 0 0 255
45.497501 50 0.57260001 0 0 255
45.497501 50 0.64529997 0 0 255
45.497501 50 0.71789998 0 0 255
45.497501 50 0.7906 0 0 255
45.497501 50 0.86339998 0 0 255
45.497501 50 0.93620002 0 0 255
45.497501 50 1.0091 0 0 255
45.497501 50 1.082 0 0 255
45.497501 50 1.155 0 0 255
45.497501 50 1.2282 0 0 255
45.497501 50 1.3013999 0 0 255
45.497501 50 1.3748 0 0 255
45.497501 50 1.4483 0 0 255
45.497501 50 1.5219001 0 0 255
45.497501 50 1.5957 0 0 255
45.497501 50 1.6697 0 0 255
45.497501 50 1.7438999 0 0 255
45.497501 50 1.8182 0 0 255
45.497501 50 1.8928 0 0 255
45.497501 50 1.9676 0 0 255
45.497501 50 2.1178 0 0 255
45.497501 50 2.1933 0 0 255
45.497501 50 2.2691 0 0 255
45.497501 50 2.3452001 0 0 255
45.497501 50 2.4215 0 0 255
45.497501 50 2.4981999 0 0 255
45.497501 50 2.5752001 0 0 255
45.497501 50 2.6524999 0 0 255
45.497501 50 2.7300999 0 0 255
45.497501 50 2.8081999 0 0 255
45.497501 50 2.8866 0 0 255
45.497501 50 2.9654 0 0 255
45.497501 50 3.0446 0 0 255
45.497501 50 3.1242001 0 0 255
45.497501 50 3.2042999 0 0 255
45.497501 50 3.2848001 0 0 255
45.497501 50 3.3657999 0 0 255
45.497501 50 3.4473 0 0 255
45.497501 50 3.5293 0 0 255
45.454201 50 0.062600002 0 0 255
45.454201 50 0.1356 0 0 255
45.454201 50 0.2085 0 0 255
45.454201 50 0.2814 0 0 255
45.454201 50 0.35429999 0 0 255
45.454201 50 0.42719999 0 0 255
45.454201 50 0.5 0 0 255
45.454201 50 0.57279998 0 0 255
45.454201 50 0.64569998 0 0 255
45.454201 50 0.71859998 0 0 255
45.454201 50 0.79149997 0 0 255
45.454201 50 0.86440003 0 0 255
45.454201 50 0.93739998 0 0 255
45.454201 50 1.0105 0 0 255
45.454201 50 1.0836 0 0 255
45.454201 50 1.1569 0 0 255
45.454201 50 1.2302001 0 0 255
45.454201 50 1.3037 0 0 255
45.454201 50 1.3773 0 0 255
45.454201 50 1.451 0 0 255
45.454201 50 1.5247999 0 0 255
45.454201 50 1.5987999 0 0 255
45.454201 50 1.673 0 0 255
45.454201 50 1.7474 0 0 255
45.454201 50 1.822 0 0 255
45.454201 50 1.8967 0 0 255
45.454201 50 1.9717 0 0 255
45.454201 50 2.1224 0 0 255
45.454201 50 2.1981001 0 0 255
45.454201 50 2.2741001 0 0 255
45.454201 50 2.3504 0 0 255
45.454201 50 2.4268999 0 0 255
45.454201 50 2.5037999 0 0 255
45.454201 50 2.5810001 0 0 255
45.454201 50 2.6586001 0 0 255
45.454201 50 2.7363999 0 0 255
45.454201 50 2.8146999 0 0 255
45.454201 50 2.8933001 0 0 255
45.454201 50 2.9724 0 0 255
45.454201 50 3.0518 0 0 255
45.454201 50 3.1315999 0 0 255
45.454201 50 3.2119999 0 0 255
45.454201 50 3.2927001 0 0 255
45.454201 50 3.3738999 0 0 255
45.454201 50 3.4556999 0 0 255
45.454201 50 3.5379 0 0 255
45.410599 50 0.061299998 0 0 255
45.410599 50 0.1345 0 0 255
45.410599 50 0.2077 0 0 255
45.410599 50 0.28080001 0 0 255
45.410599 50 0.35389999 0 0 255
45.410599 50 0.42699999 0 0 255
45.410599 50 0.5 0 0 255
45.410599 50 0.57300001 0 0 255
45.410599 50 0.64609998 0 0 255
45.410599 50 0.71920002 0 0 255
45.410599 50 0.79229999 0 0 255
45.410599 50 0.86549997 0 0 255
45.410599 50 0.93870002 0 0 255
45.410599 50 1.012 0 0 255
45.410599 50 1.0853 0 0 255
45.410599 50 1.1588 0 0 255
45.410599 50 1.2323 0 0 255
45.410599 50 1.306 0 0 255
45.410599 50 1.3798 0 0 255
45.410599 50 1.4536999 0 0 255
45.410599 50 1.5276999 0 0 255
45.410599 50 1.602 0 0 255
45.410599 50 1.6763999 0 0 255
45.410599 50 1.751 0 0 255
45.410599 50 1.8257 0 0 255
45.410599 50 1.9007 0 0 255
45.410599 50 1.9759001 0 0 255
45.410599 50 2.0513 0 0 255
45.410599 50 2.1270001 0 0 255
45.410599 50 2.2030001 0 0 255
45.410599 50 2.2792001 0 0 255
45.410599 50 2.3557 0 0 255
45.410599 50 2.4324 0 0 255
45.410599 50 2.5095 0 0 255
45.410599 50 2.5869999 0 0 255
45.410599 50 2.6647 0 0 255
45.410599 50 2.7428 0 0 255
45.410599 50 2.8213 0 0 255
45.410599 50 2.9001999 0 0 255
45.410599 50 2.9793999 0 0 255
45.410599 50 3.0590999 0 0 255
45.410599 50 3.1392 0 0 255
45.410599 50 3.2197001 0 0 255
45.410599 50 3.3006999 0 0 255
45.410599 50 3.3821001 0 0 255
45.410599 50 3.4640999 0 0 255
45.410599 50 3.5465 0 0 255
45.366798 50 0.0601 0 0 255
45.366798 50 0.13349999 0 0 255
45.366798 50 0.2069 0 0 255
45.366798 50 0.2802 0 0 255
45.366798 50 0.35350001 0 0 255
45.366798 50 0.4267 0 0 255
45.366798 50 0.5 0 0 255
45.366798 50 0.5733 0 0 255
45.366798 50 0.64649999 0 0 255
45.366798 50 0.7198 0 0 255
45.366798 50 0.7931 0 0 255
45.366798 50 0.86650002 0 0 255
45.366798 50 0.93989998 0 0 255
45.366798 50 1.0134 0 0 255
45.366798 50 1.087 0 0 255
45.366798 50 1.1607 0 0 255
45.366798 50 1.2344 0 0 255
45.366798 50 1.3083 0 0 255
45.366798 50 1.3823 0 0 255
45.366798 50 1.4564 0 0 255
45.366798 50 1.5307 0 0 255
45.366798 50 1.6051 0 0 255
45.366798 50 1.6798 0 0 255
45.366798 50 1.7546 0 0 255
45.366798 50 1.8295 0 0 255
45.366798 50 1.9047 0 0 255
45.366798 50 1.9802001 0 0 255
45.366798 50 2.0558 0 0 255
45.366798 50 2.1317 0 0 255
45.366798 50 2.2079 0 0 255
45.366798 50 2.2843001 0 0 255
45.366798 50 2.3610001 0 0 255
45.366798 50 2.438 0 0 255
45.366798 50 2.5153 0 0 255
45.366798 50 2.5929999 0 0 255
45.366798 50 2.6709001 0 0 255
45.366798 50 2.7493 0 0 255
45.366798 50 2.8280001 0 0 255
45.366798 50 2.9071 0 0 255
45.366798 50 2.9865 0 0 255
45.366798 50 3.0664001 0 0 255
45.366798 50 3.1466999 0 0 255
45.366798 50 3.2275 0 0 255
45.366798 50 3.3087001 0 0 255
45.366798 50 3.3903999 0 0 255
45.366798 50 3.4726 0 0 255
45.366798 50 3.5553 0 0 255
45.3228 50 0.058800001 0 0 255
45.3228 50 0.13240001 0 0 255
45.3228 50 0.206 0 0 255
45.3228 50 0.27950001 0 0 255
45.3228 50 0.35299999 0 0 255
45.3228 50 0.42649999 0 0 255
45.3228 50 0.5 0 0 255
45.3228 50 0.57349998 0 0 255
45.3228 50 0.64700001 0 0 255
45.3228 50 0.72049999 0 0 255
45.3228 50 0.79400003 0 0 255
45.3228 50 0.86760002 0 0 255
45.3228 50 0.94120002 0 0 255
45.3228 50 1.0149 0 0 255
45.3228 50 1.0887001 0 0 255
45.3228 50 1.1626 0 0 255
45.3228 50 1.2366 0 0 255
45.3228 50 1.3106 0 0 255
45.3228 50 1.3849 0 0 255
45.3228 50 1.4592 0 0 255
45.3228 50 1.5337 0 0 255
45.3228 50 1.6084 0 0 255
45.3228 50 1.6832 0 0 255
45.3228 50 1.7582 0 0 255
45.3228 50 1.8334 0 0 255
45.3228 50 1.9088 0 0 255
45.3228 50 1.9845001 0 0 255
45.3228 50 2.0603001 0 0 255
45.3228 50 2.1364999 0 0 255
45.3228 50 2.2128 0 0 255
45.3228 50 2.2895 0 0 255
45.3228 50 2.3664 0 0 255
45.3228 50 2.4435999 0 0 255
45.3228 50 2.5211999 0 0 255
45.3228 50 2.599 0 0 255
45.3228 50 2.6773 0 0 255
45.3228 50 2.7558 0 0 255
45.3228 50 2.8347001 0 0 255
45.3228 50 2.9140999 0 0 255
45.3228 50 2.9937999 0 0 255
45.3228 50 3.0739 0 0 255
45.3228 50 3.1544001 0 0 255
45.3228 50 3.2354 0 0 255
45.3228 50 3.3169 0 0 255
45.3228 50 3.3987999 0 0 255
45.3228 50 3.4813001 0 0 255
45.3228 50 3.5641999 0 0 255
45.2785 50 0.057500001 0 0 255
45.2785 50 0.1313 0 0 255
45.2785 50 0.2051 0 0 255
45.2785 50 0.2789 0 0 255
45.2785 50 0.35260001 0 0 255
45.2785 50 0.42629999 0 0 255
45.2785 50 0.5 0 0 255
45.2785 50 0.57370001 0 0 255
45.2785 50 0.64740002 0 0 255
45.2785 50 0.72109997 0 0 255
45.2785 50 0.7949 0 0 255
45.2785 50 0.86870003 0 0 255
45.2785 50 0.9425 0 0 255
45.2785 50 1.0164 0 0 255
45.2785 50 1.0904 0 0 255
45.2785 50 1.1645 0 0 255
45.2785 50 1.2387 0 0 255
45.2785 50 1.313 0 0 255
45.2785 50 1.3874 0 0 255
45.2785 50 1.462 0 0 255
45.2785 50 1.5367 0 0 255
45.2785 50 1.6116 0 0 255
45.2785 50 1.6867 0 0 255
45.2785 50 1.7618999 0 0 255
45.2785 50 1.8372999 0 0 255
45.2785 50 1.913 0 0 255
45.2785 50 1.9888 0 0 255
45.2785 50 2.0648999 0 0 255
45.2785 50 2.1413 0 0 255
45.2785 50 2.2179 0 0 255
45.2785 50 2.2946999 0 0 255
45.2785 50 2.3719001 0 0 255
45.2785 50 2.4493001 0 0 255
45.2785 50 2.5271001 0 0 255
45.2785 50 2.6052001 0 0 255
45.2785 50 2.6835999 0 0 255
45.2785 50 2.7623999 0 0 255
45.2785 50 2.8415999 0 0 255
45.2785 50 2.9210999 0 0 255
45.2785 50 3.0011001 0 0 255
45.2785 50 3.0813999 0 0 255
45.2785 50 3.1622 0 0 255
45.2785 50 3.2435 0 0 255
45.2785 50 3.3252001 0 0 255
45.2785 50 3.4073 0 0 255
45.2785 50 3.49 0 0 255
45.2785 50 3.5732 0 0 255
45.233898 50 0.056200001 0 0 255
45.233898 50 0.1303 0 0 255
45.233898 50 0.2043 0 0 255
45.233898 50 0.2782 0 0 255
45.233898 50 0.3522 0 0 255
45.233898 50 0.42609999 0 0 255
45.233898 50 0.5 0 0 255
45.233898 50 0.57389998 0 0 255
45.233898 50 0.64780003 0 0 255
45.233898 50 0.72180003 0 0 255
45.233898 50 0.79570001 0 0 255
45.233898 50 0.86970001 0 0 255
45.233898 50 0.94379997 0 0 255
45.233898 50 1.018 0 0 255
45.233898 50 1.0922 0 0 255
45.233898 50 1.1665 0 0 255
45.233898 50 1.2409 0 0 255
45.233898 50 1.3154 0 0 255
45.233898 50 1.3901 0 0 255
45.233898 50 1.4649 0 0 255
45.233898 50 1.5398 0 0 255
45.233898 50 1.6149 0 0 255
45.233898 50 1.6902 0 0 255
45.233898 50 1.7656 0 0 255
45.233898 50 1.8413 0 0 255
45.233898 50 1.9171 0 0 255
45.233898 50 1.9931999 0 0 255
45.233898 50 2.0695 0 0 255
45.233898 50 2.1461 0 0 255
45.233898 50 2.2228999 0 0 255
45.233898 50 2.3 0 0 255
45.233898 50 2.3773999 0 0 255
45.233898 50 2.4551001 0 0 255
45.233898 50 2.5330999 0 0 255
45.233898 50 2.6113999 0 0 255
45.233898 50 2.6901 0 0 255
45.233898 50 2.7691 0 0 255
45.233898 50 2.8485 0 0 255
45.233898 50 2.9282999 0 0 255
45.233898 50 3.0085001 0 0 255
45.233898 50 3.0890999 0 0 255
45.233898 50 3.1701 0 0 255
45.233898 50 3.2516 0 0 255
45.233898 50 3.3334999 0 0 255
45.233898 50 3.4159 0 0 255
45.233898 50 3.4988999 0 0 255
45.233898 50 3.5822999 0 0 255
45.189098 50 0.054900002 0 0 255
45.189098 50 0.1292 0 0 255
45.189098 50 0.2034 0 0 255
45.189098 50 0.27759999 0 0 255
45.189098 50 0.35170001 0 0 255
45.189098 50 0.42590001 0 0 255
45.189098 50 0.5 0 0 255
45.189098 50 0.57410002 0 0 255
45.189098 50 0.64829999 0 0 255
45.189098 50 0.72240001 0 0 255
45.189098 50 0.79659998 0 0 255
45.189098 50 0.87080002 0 0 255
45.189098 50 0.94510001 0 0 255
45.189098 50 1.0195 0 0 255
45.189098 50 1.0939 0 0 255
45.189098 50 1.1684999 0 0 255
45.189098 50 1.2431 0 0 255
45.189098 50 1.3178999 0 0 255
45.189098 50 1.3927 0 0 255
45.189098 50 1.4677 0 0 255
45.189098 50 1.5429 0 0 255
45.189098 50 1.6181999 0 0 255
45.189098 50 1.6937 0 0 255
45.189098 50 1.7694 0 0 255
45.189098 50 1.8453 0 0 255
45.189098 50 1.9214 0 0 255
45.189098 50 1.9977 0 0 255
45.189098 50 2.0741999 0 0 255
45.189098 50 2.151 0 0 255
45.189098 50 2.2281001 0 0 255
45.189098 50 2.3053999 0 0 255
45.189098 50 2.3829999 0 0 255
45.189098 50 2.461 0 0 255
45.189098 50 2.5392001 0 0 255
45.189098 50 2.6177001 0 0 255
45.189098 50 2.6967001 0 0 255
45.189098 50 2.7758999 0 0 255
45.189098 50 2.8555 0 0 255
45.189098 50 2.9356 0 0 255
45.189098 50 3.016 0 0 255
45.189098 50 3.0968001 0 0 255
45.189098 50 3.1781001 0 0 255
45.189098 50 3.2598 0 0 255
45.189098 50 3.342 0 0 255
45.189098 50 3.4247 0 0 255
45.189098 50 3.5078001 0 0 255
45.189098 50 3.5915 0 0 255
45.143902 50 0.0535 0 0 255
45.143902 50 0.12800001 0 0 255
45.143902 50 0.2025 0 0 255
45.143902 50 0.27689999 0 0 255
45.143902 50 0.3513 0 0 255
45.143902 50 0.42570001 0 0 255
45.143902 50 0.5 0 0 255
45.143902 50 0.57429999 0 0 255
45.143902 50 0.6487 0 0 255
45.143902 50 0.72310001 0 0 255
45.143902 50 0.79750001 0 0 255
45.143902 50 0.87199998 0 0 255
45.143902 50 0.9465 0 0 255
45.143902 50 1.0211 0 0 255
45.143902 50 1.0957 0 0 255
45.143902 50 1.1705 0 0 255
45.143902 50 1.2454 0 0 255
45.143902 50 1.3203 0 0 255
45.143902 50 1.3954 0 0 255
45.143902 50 1.4707 0 0 255
45.143902 50 1.5461 0 0 255
45.143902 50 1.6216 0 0 255
45.143902 50 1.6973 0 0 255
45.143902 50 1.7732 0 0 255
45.143902 50 1.8493 0 0 255
45.143902 50 1.9256999 0 0 255
45.143902 50 2.0021999 0 0 255
45.143902 50 2.079 0 0 255
45.143902 50 2.1559999 0 0 255
45.143902 50 2.2333 0 0 255
45.143902 50 2.3109 0 0 255
45.143902 50 2.3887 0 0 255
45.143902 50 2.4669001 0 0 255
45.143902 50 2.5453 0 0 255
45.143902 50 2.6241 0 0 255
45.143902 50 2.7033 0 0 255
45.143902 50 2.7828 0 0 255
45.143902 50 2.8627 0 0 255
45.143902 50 2.9428999 0 0 255
45.143902 50 3.0236001 0 0 255
45.143902 50 3.1047001 0 0 255
45.143902 50 3.1861999 0 0 255
45.143902 50 3.2681 0 0 255
45.143902 50 3.3506 0 0 255
45.143902 50 3.4335001 0 0 255
45.143902 50 3.5169001 0 0 255
45.143902 50 3.6008 0 0 255
45.098598 50 0.052200001 0 0 255
45.098598 50 0.1269 0 0 255
45.098598 50 0.2016 0 0 255
45.098598 50 0.2762 0 0 255
45.098598 50 0.35080001 0 0 255
45.098598 50 0.42539999 0 0 255
45.098598 50 0.5 0 0 255
45.098598 50 0.57459998 0 0 255
45.098598 50 0.64920002 0 0 255
45.098598 50 0.7238 0 0 255
45.098598 50 0.79839998 0 0 255
45.098598 50 0.87309998 0 0 255
45.098598 50 0.94779998 0 0 255
45.098598 50 1.0227 0 0 255
45.098598 50 1.0976 0 0 255
45.098598 50 1.1725 0 0 255
45.098598 50 1.2476 0 0 255
45.098598 50 1.3228 0 0 255
45.098598 50 1.3982 0 0 255
45.098598 50 1.4736 0 0 255
45.098598 50 1.5492001 0 0 255
45.098598 50 1.625 0 0 255
45.098598 50 1.701 0 0 255
45.098598 50 1.7771 0 0 255
45.098598 50 1.8535 0 0 255
45.098598 50 1.9299999 0 0 255
45.098598 50 2.0067999 0 0 255
45.098598 50 2.0838001 0 0 255
45.098598 50 2.1610999 0 0 255
45.098598 50 2.2386 0 0 255
45.098598 50 2.3164001 0 0 255
45.098598 50 2.3945 0 0 255
45.098598 50 2.4728999 0 0 255
45.098598 50 2.5516 0 0 255
45.098598 50 2.6306 0 0 255
45.098598 50 2.71 0 0 255
45.098598 50 2.7897 0 0 255
45.098598 50 2.8699 0 0 255
45.098598 50 2.9504001 0 0 255
45.098598 50 3.0313001 0 0 255
45.098598 50 3.1126001 0 0 255
45.098598 50 3.1944001 0 0 255
45.098598 50 3.2765999 0 0 255
45.098598 50 3.3592999 0 0 255
45.098598 50 3.4424 0 0 255
45.098598 50 3.5260999 0 0 255
45.098598 50 3.6103001 0 0 255
45.052898 50 0.050799999 0 0 255
45.052898 50 0.1258 0 0 255
45.052898 50 0.2007 0 0 255
45.052898 50 0.2755 0 0 255
45.052898 50 0.3504 0 0 255
45.052898 50 0.42519999 0 0 255
45.052898 50 0.5 0 0 255
45.052898 50 0.57480001 0 0 255
45.052898 50 0.64960003 0 0 255
45.052898 50 0.7245 0 0 255
45.052898 50 0.79930001 0 0 255
45.052898 50 0.87419999 0 0 255
45.052898 50 0.94919997 0 0 255
45.052898 50 1.0243 0 0 255
45.052898 50 1.0994 0 0 255
45.052898 50 1.1746 0 0 255
45.052898 50 1.2499 0 0 255
45.052898 50 1.3254 0 0 255
45.052898 50 1.4009 0 0 255
45.052898 50 1.4766001 0 0 255
45.052898 50 1.5525 0 0 255
45.052898 50 1.6285 0 0 255
45.052898 50 1.7047 0 0 255
45.052898 50 1.781 0 0 255
45.052898 50 1.8576 0 0 255
45.052898 50 1.9344 0 0 255
45.052898 50 2.0887001 0 0 255
45.052898 50 2.1661999 0 0 255
45.052898 50 2.2439001 0 0 255
45.052898 50 2.322 0 0 255
45.052898 50 2.4003 0 0 255
45.052898 50 2.4789 0 0 255
45.052898 50 2.5579 0 0 255
45.052898 50 2.6372001 0 0 255
45.052898 50 2.7168 0 0 255
45.052898 50 2.7967999 0 0 255
45.052898 50 2.8771 0 0 255
45.052898 50 2.9579 0 0 255
45.052898 50 3.039 0 0 255
45.052898 50 3.1206 0 0 255
45.052898 50 3.2026 0 0 255
45.052898 50 3.2851 0 0 255
45.052898 50 3.368 0 0 255
45.052898 50 3.4514999 0 0 255
45.052898 50 3.5353999 0 0 255
45.052898 50 3.6198001 0 0 255
45.007 50 0.049400002 0 0 255
45.007 50 0.1246 0 0 255
45.007 50 0.1997 0 0 255
45.007 50 0.2748 0 0 255
45.007 50 0.34990001 0 0 255
45.007 50 0.42500001 0 0 255
45.007 50 0.5 0 0 255
45.007 50 0.57499999 0 0 255
45.007 50 0.65009999 0 0 255
45.007 50 0.7252 0 0 255
45.007 50 0.8003 0 0 255
45.007 50 0.87540001 0 0 255
45.007 50 0.95060003 0 0 255
45.007 50 1.0259 0 0 255
45.007 50 1.1012 0 0 255
45.007 50 1.1767 0 0 255
45.007 50 1.2523 0 0 255
45.007 50 1.3279001 0 0 255
45.007 50 1.4037 0 0 255
45.007 50 1.4796 0 0 255
45.007 50 1.5556999 0 0 255
45.007 50 1.632 0 0 255
45.007 50 1.7084 0 0 255
45.007 50 1.785 0 0 255
45.007 50 1.8618 0 0 255
45.007 50 1.9389 0 0 255
45.007 50 2.0936 0 0 255
45.007 50 2.1712999 0 0 255
45.007 50 2.2493 0 0 255
45.007 50 2.3276 0 0 255
45.007 50 2.4061999 0 0 255
45.007 50 2.4851 0 0 255
45.007 50 2.5643001 0 0 255
45.007 50 2.6438 0 0 255
45.007 50 2.7237 0 0 255
45.007 50 2.8039 0 0 255
45.007 50 2.8845 0 0 255
45.007 50 2.9655001 0 0 255
45.007 50 3.0469 0 0 255
45.007 50 3.1287999 0 0 255
45.007 50 3.211 0 0 255
45.007 50 3.2937 0 0 255
45.007 50 3.3769 0 0 255
45.007 50 3.4605999 0 0 255
45.007 50 3.5448 0 0 255
45.007 50 3.6294999 0 0 255
46 60.928299 0.095299996 0 0 255
46 60.928299 0.23019999 0 0 255
46 60.928299 0.3651 0 0 255
46 60.928299 0.5 0 0 255
46 60.928299 0.63489997 0 0 255
46 60.928299 0.76980001 0 0 255
46 60.928299 0.90469998 0 0 255
46 60.928299 1.0397 0 0 255
46 60.928299 1.1748 0 0 255
46 60.928299 1.3099999 0 0 255
46 60.928299 1.4453 0 0 255
46 60.928299 1.5807 0 0 255
46 60.928299 1.7163 0 0 255
46 60.928299 1.8521 0 0 255
46 60.928299 1.9881001 0 0 255
46 60.928299 2.1243999 0 0 255
46 60.928299 2.2609 0 0 255
46 60.928299 2.3975999 0 0 255
46 60.928299 2.5346999 0 0 255
46 60.928299 2.6719999 0 0 255
46 60.928299 2.8097 0 0 255
46 60.928299 2.9477999 0 0 255
46 60.928299 3.0862999 0 0 255
46 60.928299 3.2251 0 0 255
46 60.928299 3.3643999 0 0 255
46 60.928299 3.5041001 0 0 255
46 60.928299 3.6443 0 0 255
46 60.928299 3.7850001 0 0 255
46 60.928299 3.9263 0 0 255
46 60.928299 4.0679998 0 0 255
46 60.928299 4.2104001 0 0 255
46 60.928299 4.3533001 0 0 255
46 60.928299 4.4969001 0 0 255
46 60.928299 4.6410999 0 0 255
46 60.928299 4.7859998 0 0 255
46 60.928299 4.9316001 0 0 255
46 60.671902 0.1018 0 0 255
46 60.671902 0.23459999 0 0 255
46 60.671902 0.3673 0 0 255
46 60.671902 0.5 0 0 255
46 60.671902 0.63270003 0 0 255
46 60.671902 0.76539999 0 0 255
46 60.671902 0.89819998 0 0 255
46 60.671902 1.0311 0 0 255
46 60.671902 1.164 0 0 255
46 60.671902 1.2970001 0 0 255
46 60.671902 1.4301 0 0 255
46 60.671902 1.5634 0 0 255
46 60.671902 1.6968 0 0 255
46 60.671902 1.8305 0 0 255
46 60.671902 1.9643 0 0 255
46 60.671902 2.0984001 0 0 255
46 60.671902 2.2327001 0 0 255
46 60.671902 2.3671999 0 0 255
46 60.671902 2.6373 0 0 255
46 60.671902 2.7728 0 0 255
46 60.671902 2.9086001 0 0 255
46 60.671902 3.0448 0 0 255
46 60.671902 3.1815 0 0 255
46 60.671902 3.3185 0 0 255
46 60.671902 3.4560001 0 0 255
46 60.671902 3.5940001 0 0 255
46 60.671902 3.7323999 0 0 255
46 60.671902 3.8714001 0 0 255
46 60.671902 4.0109 0 0 255
46 60.671902 4.151 0 0 255
46 60.671902 4.2916002 0 0 255
46 60.671902 4.4329 0 0 255
46 60.671902 4.5748 0 0 255
46 60.671902 4.7174001 0 0 255
46 60.671902 4.8606 0 0 255
46 60.423599 0.108 0 0 255
46 60.423599 0.2387 0 0 255
46 60.423599 0.36939999 0 0 255
46 60.423599 0.5 0 0 255
46 60.423599 0.63059998 0 0 255
46 60.423599 0.76130003 0 0 255
46 60.423599 0.89200002 0 0 255
46 60.423599 1.0227 0 0 255
46 60.423599 1.1535 0 0 255
46 60.423599 1.2844 0 0 255
46 60.423599 1.4155 0 0 255
46 60.423599 1.5467 0 0 255
46 60.423599 1.678 0 0 255
46 60.423599 1.8095 0 0 255
46 60.423599 1.9413 0 0 255
46 60.423599 2.0732 0 0 255
46 60.423599 2.2054 0 0 255
46 60.423599 2.3378 0 0 255
46 60.423599 2.4705999 0 0 255
46 60.423599 2.6036 0 0 255
46 60.423599 2.737 0 0 255
46 60.423599 2.8706999 0 0 255
46 60.423599 3.0048001 0 0 255
46 60.423599 3.1393001 0 0 255
46 60.423599 3.2742 0 0 255
46 60.423599 3.4094999 0 0 255
46 60.423599 3.5453 0 0 255
46 60.423599 3.6815 0 0 255
46 60.423599 3.8183 0 0 255
46 60.423599 3.9556 0 0 255
46 60.423599 4.0935001 0 0 255
46 60.423599 4.2319002 0 0 255
46 60.423599 4.3709998 0 0 255
46 60.423599 4.5107002 0 0 255
46 60.423599 4.651 0 0 255
46 60.423599 4.7919998 0 0 255
46 60.423599 4.9337001 0 0 255
46 60.182999 0.1141 0 0 255
46 60.182999 0.2428 0 0 255
46 60.182999 0.3714 0 0 255
46 60.182999 0.5 0 0 255
46 60.182999 0.6286 0 0 255
46 60.182999 0.7572 0 0 255
46 60.182999 0.88590002 0 0 255
46 60.182999 1.0146 0 0 255
46 60.182999 1.1434 0 0 255
46 60.182999 1.2723 0 0 255
46 60.182999 1.4013 0 0 255
46 60.182999 1.5305001 0 0 255
46 60.182999 1.6598001 0 0 255
46 60.182999 1.7893 0 0 255
46 60.182999 1.9189 0 0 255
46 60.182999 2.0488 0 0 255
46 60.182999 2.1789999 0 0 255
46 60.182999 2.3094001 0 0 255
46 60.182999 2.4401 0 0 255
46 60.182999 2.5710001 0 0 255
46 60.182999 2.7023001 0 0 255
46 60.182999 2.8340001 0 0 255
46 60.182999 2.9660001 0 0 255
46 60.182999 3.0984001 0 0 255
46 60.182999 3.2312 0 0 255
46 60.182999 3.3643999 0 0 255
46 60.182999 3.4981 0 0 255
46 60.182999 3.6322999 0 0 255
46 60.182999 3.767 0 0 255
46 60.182999 3.9021001 0 0 255
46 60.182999 4.0379 0 0 255
46 60.182999 4.1742001 0 0 255
46 60.182999 4.3111 0 0 255
46 60.182999 4.4485998 0 0 255
46 60.182999 4.5867 0 0 255
46 60.182999 4.7255998 0 0 255
46 60.182999 4.8650999 0 0 255
46 59.949699 0.12 0 0 255
46 59.949699 0.2467 0 0 255
46 59.949699 0.3734 0 0 255
46 59.949699 0.5 0 0 255
46 59.949699 0.62660003 0 0 255
46 59.949699 0.75330001 0 0 255
46 59.949699 0.88 0 0 255
46 59.949699 1.0068001 0 0 255
46 59.949699 1.1336 0 0 255
46 59.949699 1.2605 0 0 255
46 59.949699 1.3875999 0 0 255
46 59.949699 1.5148 0 0 255
46 59.949699 1.6421 0 0 255
46 59.949699 1.7696 0 0 255
46 59.949699 1.8973 0 0 255
46 59.949699 2.0253 0 0 255
46 59.949699 2.1533999 0 0 255
46 59.949699 2.2818 0 0 255
46 59.949699 2.4105 0 0 255
46 59.949699 2.5395 0 0 255
46 59.949699 2.6688001 0 0 255
46 59.949699 2.7985001 0 0 255
46 59.949699 2.9284999 0 0 255
46 59.949699 3.0588 0 0 255
46 59.949699 3.1896 0 0 255
46 59.949699 3.3208001 0 0 255
46 59.949699 3.4525001 0 0 255
46 59.949699 3.5846 0 0 255
46 59.949699 3.7172 0 0 255
46 59.949699 3.8503001 0 0 255
46 59.949699 3.984 0 0 255
46 59.949699 4.1181998 0 0 255
46 59.949699 4.2529998 0 0 255
46 59.949699 4.3884001 0 0 255
46 59.949699 4.5244999 0 0 255
46 59.949699 4.6612 0 0 255
46 59.949699 4.7986002 0 0 255
46 59.949699 4.9366999 0 0 255
46 59.723499 0.1257 0 0 255
46 59.723499 0.25049999 0 0 255
46 59.723499 0.37529999 0 0 255
46 59.723499 0.5 0 0 255
46 59.723499 0.62470001 0 0 255
46 59.723499 0.74949998 0 0 255
46 59.723499 0.8743 0 0 255
46 59.723499 0.99919999 0 0 255
46 59.723499 1.1241 0 0 255
46 59.723499 1.2491 0 0 255
46 59.723499 1.3743 0 0 255
46 59.723499 1.4996001 0 0 255
46 59.723499 1.625 0 0 255
46 59.723499 1.7506 0 0 255
46 59.723499 1.8764 0 0 255
46 59.723499 2.0023999 0 0 255
46 59.723499 2.1287 0 0 255
46 59.723499 2.2551 0 0 255
46 59.723499 2.3819001 0 0 255
46 59.723499 2.5090001 0 0 255
46 59.723499 2.6363001 0 0 255
46 59.723499 2.7639999 0 0 255
46 59.723499 2.8921001 0 0 255
46 59.723499 3.0204999 0 0 255
46 59.723499 3.1493001 0 0 255
46 59.723499 3.2786 0 0 255
46 59.723499 3.4082999 0 0 255
46 59.723499 3.5383999 0 0 255
46 59.723499 3.6689999 0 0 255
46 59.723499 3.8001001 0 0 255
46 59.723499 3.9317999 0 0 255
46 59.723499 4.0640001 0 0 255
46 59.723499 4.1968002 0 0 255
46 59.723499 4.3302002 0 0 255
46 59.723499 4.4642 0 0 255
46 59.723499 4.5988998 0 0 255
46 59.723499 4.7342 0 0 255
46 59.723499 4.8702998 0 0 255
46 59.503899 0.0082 0 0 255
