ply
format ascii 1.0
comment PCL generated
element vertex 1528
property float x
property float y
property float z
property uchar red
property uchar green
property uchar blue
element camera 0
property float view_px
property float view_py
property float view_pz
property float x_axisx
property float x_axisy
property float x_axisz
property float y_axisx
property float y_axisy
property float y_axisz
property float z_axisx
property float z_axisy
property float z_axisz
property float focal
property float scalex
property float scaley
property float centerx
property float centery
property int viewportx
property int viewporty
property float k1
property float k2
end_header
50 57.686298 2.2616999 0 120 255
50 57.686298 2.3406 0 120 255
50 57.686298 2.4196999 0 120 255
50 57.686298 2.4991 0 120 255
50 57.686298 2.5789001 0 120 255
50 57.686298 2.6589999 0 120 255
50 57.686298 2.7393999 0 120 255
50 57.686298 2.8202 0 120 255
50 57.686298 2.9014001 0 120 255
50 57.686298 2.983 0 120 255
50 57.686298 3.0650001 0 120 255
50 57.686298 3.1473999 0 120 255
50 57.686298 3.2302001 0 120 255
50 57.686298 3.3134999 0 120 255
50 57.686298 3.3973 0 120 255
50 57.686298 3.4816 0 120 255
50 57.686298 3.5664001 0 120 255
50 57.686298 3.6517 0 120 255
50 57.645302 0.045400001 0 120 255
50 57.645302 0.1212 0 120 255
50 57.645302 0.1971 0 120 255
50 57.645302 0.2728 0 120 255
50 57.645302 0.3486 0 120 255
50 57.645302 0.42429999 0 120 255
50 57.645302 0.5 0 120 255
50 57.645302 0.57569999 0 120 255
50 57.645302 0.65140003 0 120 255
50 57.645302 0.72719997 0 120 255
50 57.645302 0.80290002 0 120 255
50 57.645302 0.87879997 0 120 255
50 57.645302 0.95459998 0 120 255
50 57.645302 1.0306 0 120 255
50 57.645302 1.1066 0 120 255
50 57.645302 1.1827 0 120 255
50 57.645302 1.2589999 0 120 255
50 57.645302 1.3353 0 120 255
50 57.645302 1.4118 0 120 255
50 57.645302 1.4884 0 120 255
50 57.645302 1.5651 0 120 255
50 57.645302 1.6421 0 120 255
50 57.645302 1.7192 0 120 255
50 57.645302 1.7965 0 120 255
50 57.645302 1.874 0 120 255
50 57.645302 1.9517 0 120 255
50 57.645302 2.0295999 0 120 255
50 57.645302 2.1078 0 120 255
50 57.645302 2.1861999 0 120 255
50 57.645302 2.2649 0 120 255
50 57.645302 2.3439 0 120 255
50 57.645302 2.4231999 0 120 255
50 57.645302 2.5028 0 120 255
50 57.645302 2.5827 0 120 255
50 57.645302 2.6629 0 120 255
50 57.645302 2.7435 0 120 255
50 57.645302 2.8243999 0 120 255
50 57.645302 2.9058001 0 120 255
50 57.645302 2.9875 0 120 255
50 57.645302 3.0696001 0 120 255
50 57.645302 3.1522 0 120 255
50 57.645302 3.2351999 0 120 255
50 57.645302 3.3185999 0 120 255
50 57.645302 3.4026 0 120 255
50 57.645302 3.487 0 120 255
50 57.645302 3.5718999 0 120 255
50 57.645302 3.6573999 0 120 255
50 57.604198 0.044500001 0 120 255
50 57.604198 0.1205 0 120 255
50 57.604198 0.1965 0 120 255
50 57.604198 0.27239999 0 120 255
50 57.604198 0.34830001 0 120 255
50 57.604198 0.4242 0 120 255
50 57.604198 0.5 0 120 255
50 57.604198 0.5758 0 120 255
50 57.604198 0.65170002 0 120 255
50 57.604198 0.72759998 0 120 255
50 57.604198 0.8035 0 120 255
50 57.604198 0.87949997 0 120 255
50 57.604198 0.95550001 0 120 255
50 57.604198 1.0316 0 120 255
50 57.604198 1.1077 0 120 255
50 57.604198 1.184 0 120 255
50 57.604198 1.2604001 0 120 255
50 57.604198 1.3368 0 120 255
50 57.604198 1.4134001 0 120 255
50 57.604198 1.4902 0 120 255
50 57.604198 1.5671 0 120 255
50 57.604198 1.6442 0 120 255
50 57.604198 1.7214 0 120 255
50 57.604198 1.7989 0 120 255
50 57.604198 1.8765 0 120 255
50 57.604198 1.9543999 0 120 255
50 57.604198 2.0323999 0 120 255
50 57.604198 2.1108 0 120 255
50 57.604198 2.1893001 0 120 255
50 57.604198 2.2681999 0 120 255
50 57.604198 2.4267001 0 120 255
50 57.604198 2.5064001 0 120 255
50 57.604198 2.5864999 0 120 255
50 57.604198 2.6668999 0 120 255
50 57.604198 2.7476001 0 120 255
50 57.604198 2.8287001 0 120 255
50 57.604198 2.9102001 0 120 255
50 57.604198 2.9921 0 120 255
50 57.604198 3.0743999 0 120 255
50 57.604198 3.1571 0 120 255
50 57.604198 3.2402 0 120 255
50 57.604198 3.3238001 0 120 255
50 57.604198 3.4079001 0 120 255
50 57.604198 3.4925001 0 120 255
50 57.604198 3.5776 0 120 255
50 57.604198 3.6631999 0 120 255
50 57.562901 0.043699998 0 120 255
50 57.562901 0.1198 0 120 255
50 57.562901 0.19589999 0 120 255
50 57.562901 0.27200001 0 120 255
50 57.562901 0.34799999 0 120 255
50 57.562901 0.42399999 0 120 255
50 57.562901 0.5 0 120 255
50 57.562901 0.57599998 0 120 255
50 57.562901 0.65200001 0 120 255
50 57.562901 0.72799999 0 120 255
50 57.562901 0.80409998 0 120 255
50 57.562901 0.88020003 0 120 255
50 57.562901 0.95630002 0 120 255
50 57.562901 1.0325 0 120 255
50 57.562901 1.1089 0 120 255
50 57.562901 1.1853 0 120 255
50 57.562901 1.2618001 0 120 255
50 57.562901 1.3384 0 120 255
50 57.562901 1.4152 0 120 255
50 57.562901 1.492 0 120 255
50 57.562901 1.5691 0 120 255
50 57.562901 1.6463 0 120 255
50 57.562901 1.7237 0 120 255
50 57.562901 1.8013 0 120 255
50 57.562901 1.8791 0 120 255
50 57.562901 1.9571 0 120 255
50 57.562901 2.0353 0 120 255
50 57.562901 2.1138 0 120 255
50 57.562901 2.1925001 0 120 255
50 57.562901 2.2715001 0 120 255
50 57.562901 2.4303 0 120 255
50 57.562901 2.5102 0 120 255
50 57.562901 2.5904 0 120 255
50 57.562901 2.6709001 0 120 255
50 57.562901 2.7518001 0 120 255
50 57.562901 2.8331001 0 120 255
50 57.562901 2.9147 0 120 255
50 57.562901 2.9967 0 120 255
50 57.562901 3.0792 0 120 255
50 57.562901 3.1619999 0 120 255
50 57.562901 3.2453001 0 120 255
50 57.562901 3.3290999 0 120 255
50 57.562901 3.4133999 0 120 255
50 57.562901 3.4981 0 120 255
50 57.562901 3.5833001 0 120 255
50 57.562901 3.6691 0 120 255
50 57.5215 0.042800002 0 120 255
50 57.5215 0.1191 0 120 255
50 57.5215 0.1954 0 120 255
50 57.5215 0.27160001 0 120 255
50 57.5215 0.3477 0 120 255
50 57.5215 0.42390001 0 120 255
50 57.5215 0.5 0 120 255
50 57.5215 0.57609999 0 120 255
50 57.5215 0.6523 0 120 255
50 57.5215 0.72839999 0 120 255
50 57.5215 0.8046 0 120 255
50 57.5215 0.88090003 0 120 255
50 57.5215 0.95719999 0 120 255
50 57.5215 1.0336 0 120 255
50 57.5215 1.11 0 120 255
50 57.5215 1.1866 0 120 255
50 57.5215 1.2632 0 120 255
50 57.5215 1.34 0 120 255
50 57.5215 1.4169 0 120 255
50 57.5215 1.4938999 0 120 255
50 57.5215 1.5711 0 120 255
50 57.5215 1.6485 0 120 255
50 57.5215 1.726 0 120 255
50 57.5215 1.8037 0 120 255
50 57.5215 1.8817 0 120 255
50 57.5215 1.9598 0 120 255
50 57.5215 2.0381999 0 120 255
50 57.5215 2.1168001 0 120 255
50 57.5215 2.1956999 0 120 255
50 57.5215 2.2748001 0 120 255
50 57.5215 2.434 0 120 255
50 57.5215 2.5139999 0 120 255
50 57.5215 2.5943 0 120 255
50 57.5215 2.675 0 120 255
50 57.5215 2.7560999 0 120 255
50 57.5215 2.8375001 0 120 255
50 57.5215 2.9191999 0 120 255
50 57.5215 3.0014 0 120 255
50 57.5215 3.0840001 0 120 255
50 57.5215 3.1671 0 120 255
50 57.5215 3.2505 0 120 255
50 57.5215 3.3343999 0 120 255
50 57.5215 3.4189 0 120 255
50 57.5215 3.5037999 0 120 255
50 57.5215 3.5892 0 120 255
50 57.5215 3.6751001 0 120 255
50 57.4799 0.041900001 0 120 255
50 57.4799 0.1184 0 120 255
50 57.4799 0.1948 0 120 255
50 57.4799 0.27110001 0 120 255
50 57.4799 0.34740001 0 120 255
50 57.4799 0.4237 0 120 255
50 57.4799 0.5 0 120 255
50 57.4799 0.57630002 0 120 255
50 57.4799 0.65259999 0 120 255
50 57.4799 0.72890002 0 120 255
50 57.4799 0.80519998 0 120 255
50 57.4799 0.88160002 0 120 255
50 57.4799 0.95810002 0 120 255
50 57.4799 1.0346 0 120 255
50 57.4799 1.1112 0 120 255
50 57.4799 1.1878999 0 120 255
50 57.4799 1.2647001 0 120 255
50 57.4799 1.3415999 0 120 255
50 57.4799 1.4186 0 120 255
50 57.4799 1.4958 0 120 255
50 57.4799 1.5732 0 120 255
50 57.4799 1.6507 0 120 255
50 57.4799 1.7284 0 120 255
50 57.4799 1.8062 0 120 255
50 57.4799 1.8843 0 120 255
50 57.4799 1.9626 0 120 255
50 57.4799 2.0411 0 120 255
50 57.4799 2.1199 0 120 255
50 57.4799 2.1989 0 120 255
50 57.4799 2.2781999 0 120 255
50 57.4799 2.4377 0 120 255
50 57.4799 2.5178001 0 120 255
50 57.4799 2.5983 0 120 255
50 57.4799 2.6791999 0 120 255
50 57.4799 2.7604001 0 120 255
50 57.4799 2.8419001 0 120 255
50 57.4799 2.9238999 0 120 255
50 57.4799 3.0062001 0 120 255
50 57.4799 3.089 0 120 255
50 57.4799 3.1721001 0 120 255
50 57.4799 3.2558 0 120 255
50 57.4799 3.3399 0 120 255
50 57.4799 3.4244001 0 120 255
50 57.4799 3.5095 0 120 255
50 57.4799 3.5950999 0 120 255
50 57.4799 3.6812 0 120 255
50 57.438099 0.041099999 0 120 255
50 57.438099 0.1177 0 120 255
50 57.438099 0.19419999 0 120 255
50 57.438099 0.27070001 0 120 255
50 57.438099 0.34709999 0 120 255
50 57.438099 0.42359999 0 120 255
50 57.438099 0.5 0 120 255
50 57.438099 0.57639998 0 120 255
50 57.438099 0.65289998 0 120 255
50 57.438099 0.72930002 0 120 255
50 57.438099 0.80580002 0 120 255
50 57.438099 0.88230002 0 120 255
50 57.438099 0.95889997 0 120 255
50 57.438099 1.0355999 0 120 255
50 57.438099 1.1124001 0 120 255
50 57.438099 1.1892 0 120 255
50 57.438099 1.2661 0 120 255
50 57.438099 1.3432 0 120 255
50 57.438099 1.4204 0 120 255
50 57.438099 1.4977 0 120 255
50 57.438099 1.5752 0 120 255
50 57.438099 1.6529 0 120 255
50 57.438099 1.7307 0 120 255
50 57.438099 1.8088 0 120 255
50 57.438099 1.887 0 120 255
50 57.438099 1.9654 0 120 255
50 57.438099 2.0441 0 120 255
50 57.438099 2.1229999 0 120 255
50 57.438099 2.2021999 0 120 255
50 57.438099 2.2816999 0 120 255
50 57.438099 2.4414001 0 120 255
50 57.438099 2.5216999 0 120 255
50 57.438099 2.6024001 0 120 255
50 57.438099 2.6833999 0 120 255
50 57.438099 2.7646999 0 120 255
50 57.438099 2.8464999 0 120 255
50 57.438099 2.9286001 0 120 255
50 57.438099 3.0111001 0 120 255
50 57.438099 3.0940001 0 120 255
50 57.438099 3.1773 0 120 255
50 57.438099 3.2611001 0 120 255
50 57.438099 3.3454001 0 120 255
50 57.438099 3.4301 0 120 255
50 57.438099 3.5153 0 120 255
50 57.438099 3.6010001 0 120 255
50 57.438099 3.6873 0 120 255
50 57.396198 0.040199999 0 120 255
50 57.396198 0.1169 0 120 255
50 57.396198 0.1936 0 120 255
50 57.396198 0.27020001 0 120 255
50 57.396198 0.3468 0 120 255
50 57.396198 0.42340001 0 120 255
50 57.396198 0.5 0 120 255
50 57.396198 0.57660002 0 120 255
50 57.396198 0.65319997 0 120 255
50 57.396198 0.72979999 0 120 255
50 57.396198 0.8064 0 120 255
50 57.396198 0.88309997 0 120 255
50 57.396198 0.9598 0 120 255
50 57.396198 1.0367 0 120 255
50 57.396198 1.1136 0 120 255
50 57.396198 1.1905 0 120 255
50 57.396198 1.2676001 0 120 255
50 57.396198 1.3449 0 120 255
50 57.396198 1.4222 0 120 255
50 57.396198 1.4997 0 120 255
50 57.396198 1.5773 0 120 255
50 57.396198 1.6551 0 120 255
50 57.396198 1.7331001 0 120 255
50 57.396198 1.8113 0 120 255
50 57.396198 1.8897001 0 120 255
50 57.396198 1.9683 0 120 255
50 57.396198 2.0471001 0 120 255
50 57.396198 2.1262 0 120 255
50 57.396198 2.2054999 0 120 255
50 57.396198 2.2851 0 120 255
50 57.396198 2.4452 0 120 255
50 57.396198 2.5257001 0 120 255
50 57.396198 2.6064999 0 120 255
50 57.396198 2.6877 0 120 255
50 57.396198 2.7692001 0 120 255
50 57.396198 2.8510001 0 120 255
50 57.396198 2.9333 0 120 255
50 57.396198 3.016 0 120 255
50 57.396198 3.099 0 120 255
50 57.396198 3.1824999 0 120 255
50 57.396198 3.2665 0 120 255
50 57.396198 3.3508999 0 120 255
50 57.396198 3.4358001 0 120 255
50 57.396198 3.5211999 0 120 255
50 57.396198 3.6071 0 120 255
50 57.396198 3.6935999 0 120 255
50 57.354198 0.039299998 0 120 255
50 57.354198 0.1162 0 120 255
50 57.354198 0.193 0 120 255
50 57.354198 0.26980001 0 120 255
50 57.354198 0.34650001 0 120 255
50 57.354198 0.4233 0 120 255
50 57.354198 0.5 0 120 255
50 57.354198 0.57669997 0 120 255
50 57.354198 0.65350002 0 120 255
50 57.354198 0.73019999 0 120 255
50 57.354198 0.80699998 0 120 255
50 57.354198 0.88380003 0 120 255
50 57.354198 0.96069998 0 120 255
50 57.354198 1.0377001 0 120 255
50 57.354198 1.1148 0 120 255
50 57.354198 1.1919 0 120 255
50 57.354198 1.2692 0 120 255
50 57.354198 1.3465 0 120 255
50 57.354198 1.424 0 120 255
50 57.354198 1.5017 0 120 255
50 57.354198 1.5795 0 120 255
50 57.354198 1.6574 0 120 255
50 57.354198 1.7356 0 120 255
50 57.354198 1.8139 0 120 255
50 57.354198 1.8925 0 120 255
50 57.354198 1.9712 0 120 255
50 57.354198 2.0502 0 120 255
50 57.354198 2.1294 0 120 255
50 57.354198 2.2089 0 120 255
50 57.354198 2.2887001 0 120 255
50 57.354198 2.4489999 0 120 255
50 57.354198 2.5297 0 120 255
50 57.354198 2.6106999 0 120 255
50 57.354198 2.6919999 0 120 255
50 57.354198 2.7737 0 120 255
50 57.354198 2.8557 0 120 255
50 57.354198 2.9381001 0 120 255
50 57.354198 3.0209 0 120 255
50 57.354198 3.1041999 0 120 255
50 57.354198 3.1879001 0 120 255
50 57.354198 3.2720001 0 120 255
50 57.354198 3.3566 0 120 255
50 57.354198 3.4416001 0 120 255
50 57.354198 3.5272 0 120 255
50 57.354198 3.6133001 0 120 255
50 57.354198 3.6998999 0 120 255
50 57.311901 0.0383 0 120 255
50 57.311901 0.1154 0 120 255
50 57.311901 0.19239999 0 120 255
50 57.311901 0.26930001 0 120 255
50 57.311901 0.34619999 0 120 255
50 57.311901 0.42309999 0 120 255
50 57.311901 0.5 0 120 255
50 57.311901 0.57690001 0 120 255
50 57.311901 0.65380001 0 120 255
50 57.311901 0.73070002 0 120 255
50 57.311901 0.80760002 0 120 255
50 57.311901 0.88459998 0 120 255
50 57.311901 0.96170002 0 120 255
50 57.311901 1.0388 0 120 255
50 57.311901 1.1160001 0 120 255
50 57.311901 1.1933 0 120 255
50 57.311901 1.2707 0 120 255
50 57.311901 1.3482 0 120 255
50 57.311901 1.4259 0 120 255
50 57.311901 1.5037 0 120 255
50 57.311901 1.5816 0 120 255
50 57.311901 1.6598001 0 120 255
50 57.311901 1.7381001 0 120 255
50 57.311901 1.8164999 0 120 255
50 57.311901 1.8952 0 120 255
50 57.311901 1.9742 0 120 255
50 57.311901 2.0532999 0 120 255
50 57.311901 2.1327 0 120 255
50 57.311901 2.2123001 0 120 255
50 57.311901 2.2922001 0 120 255
50 57.311901 2.4528999 0 120 255
50 57.311901 2.5337999 0 120 255
50 57.311901 2.6149001 0 120 255
50 57.311901 2.6963999 0 120 255
50 57.311901 2.7781999 0 120 255
50 57.311901 2.8604 0 120 255
50 57.311901 2.9430001 0 120 255
50 57.311901 3.026 0 120 255
50 57.311901 3.1094 0 120 255
50 57.311901 3.1932001 0 120 255
50 57.311901 3.2774999 0 120 255
50 57.311901 3.3622999 0 120 255
50 57.311901 3.4475 0 120 255
50 57.311901 3.5332 0 120 255
50 57.311901 3.6194999 0 120 255
50 57.311901 3.7063 0 120 255
50 57.269501 0.0374 0 120 255
50 57.269501 0.1146 0 120 255
50 57.269501 0.1918 0 120 255
50 57.269501 0.26890001 0 120 255
50 57.269501 0.3459 0 120 255
50 57.269501 0.42300001 0 120 255
50 57.269501 0.5 0 120 255
50 57.269501 0.57700002 0 120 255
50 57.269501 0.6541 0 120 255
50 57.269501 0.73110002 0 120 255
50 57.269501 0.8082 0 120 255
50 57.269501 0.8854 0 120 255
50 57.269501 0.96259999 0 120 255
50 57.269501 1.0398999 0 120 255
50 57.269501 1.1172 0 120 255
50 57.269501 1.1947 0 120 255
50 57.269501 1.2723 0 120 255
50 57.269501 1.3499 0 120 255
50 57.269501 1.4278001 0 120 255
50 57.269501 1.5057 0 120 255
50 57.269501 1.5838 0 120 255
50 57.269501 1.6621 0 120 255
50 57.269501 1.7406 0 120 255
50 57.269501 1.8192 0 120 255
50 57.269501 1.8981 0 120 255
50 57.269501 1.9771 0 120 255
50 57.269501 2.0564001 0 120 255
50 57.269501 2.1359999 0 120 255
50 57.269501 2.2158 0 120 255
50 57.269501 2.2959001 0 120 255
50 57.269501 2.3762 0 120 255
50 57.269501 2.4568999 0 120 255
50 57.269501 2.5379 0 120 255
50 57.269501 2.6192 0 120 255
50 57.269501 2.7007999 0 120 255
50 57.269501 2.7828 0 120 255
50 57.269501 2.8652 0 120 255
50 57.269501 2.948 0 120 255
50 57.269501 3.0311 0 120 255
50 57.269501 3.1147001 0 120 255
50 57.269501 3.1987 0 120 255
50 57.269501 3.2832 0 120 255
50 57.269501 3.3680999 0 120 255
50 57.269501 3.4535 0 120 255
50 57.269501 3.5394001 0 120 255
50 57.269501 3.6257999 0 120 255
50 57.269501 3.7128 0 120 255
50 57.226898 0.036400001 0 120 255
50 57.226898 0.1138 0 120 255
50 57.226898 0.1911 0 120 255
50 57.226898 0.26840001 0 120 255
50 57.226898 0.34560001 0 120 255
50 57.226898 0.4228 0 120 255
50 57.226898 0.5 0 120 255
50 57.226898 0.5772 0 120 255
50 57.226898 0.65439999 0 120 255
50 57.226898 0.73159999 0 120 255
50 57.226898 0.8089 0 120 255
50 57.226898 0.88620001 0 120 255
50 57.226898 0.96359998 0 120 255
50 57.226898 1.041 0 120 255
50 57.226898 1.1185 0 120 255
50 57.226898 1.1961 0 120 255
50 57.226898 1.2738 0 120 255
50 57.226898 1.3516999 0 120 255
50 57.226898 1.4297 0 120 255
50 57.226898 1.5078 0 120 255
50 57.226898 1.586 0 120 255
50 57.226898 1.6645 0 120 255
50 57.226898 1.7431 0 120 255
50 57.226898 1.8219 0 120 255
50 57.226898 1.9009 0 120 255
50 57.226898 1.9802001 0 120 255
50 57.226898 2.0596001 0 120 255
50 57.226898 2.1393001 0 120 255
50 57.226898 2.2193 0 120 255
50 57.226898 2.2995999 0 120 255
50 57.226898 2.3801 0 120 255
50 57.226898 2.4609001 0 120 255
50 57.226898 2.5421 0 120 255
50 57.226898 2.6235001 0 120 255
50 57.226898 2.7053001 0 120 255
50 57.226898 2.7874999 0 120 255
50 57.226898 2.8699999 0 120 255
50 57.226898 2.9530001 0 120 255
50 57.226898 3.0362999 0 120 255
50 57.226898 3.1199999 0 120 255
50 57.226898 3.2042 0 120 255
50 57.226898 3.2888999 0 120 255
50 57.226898 3.3738999 0 120 255
50 57.226898 3.4595001 0 120 255
50 57.226898 3.5455999 0 120 255
50 57.226898 3.6322 0 120 255
50 57.226898 3.7193999 0 120 255
50 57.1842 0.035500001 0 120 255
50 57.1842 0.113 0 120 255
50 57.1842 0.19050001 0 120 255
50 57.1842 0.26789999 0 120 255
50 57.1842 0.34529999 0 120 255
50 57.1842 0.42269999 0 120 255
50 57.1842 0.5 0 120 255
50 57.1842 0.57730001 0 120 255
50 57.1842 0.65469998 0 120 255
50 57.1842 0.73210001 0 120 255
50 57.1842 0.80949998 0 120 255
50 57.1842 0.88700002 0 120 255
50 57.1842 0.96450001 0 120 255
50 57.1842 1.0421 0 120 255
50 57.1842 1.1198 0 120 255
50 57.1842 1.1976 0 120 255
50 57.1842 1.2754 0 120 255
50 57.1842 1.3535 0 120 255
50 57.1842 1.4316 0 120 255
50 57.1842 1.5099 0 120 255
50 57.1842 1.5883 0 120 255
50 57.1842 1.6669 0 120 255
50 57.1842 1.7457 0 120 255
50 57.1842 1.8246 0 120 255
50 57.1842 1.9038 0 120 255
50 57.1842 1.9832 0 120 255
50 57.1842 2.0629001 0 120 255
50 57.1842 2.1427 0 120 255
50 57.1842 2.2228999 0 120 255
50 57.1842 2.3032999 0 120 255
50 57.1842 2.3840001 0 120 255
50 57.1842 2.4649999 0 120 255
50 57.1842 2.5462999 0 120 255
50 57.1842 2.6278999 0 120 255
50 57.1842 2.7098999 0 120 255
50 57.1842 2.7922001 0 120 255
50 57.1842 2.8749001 0 120 255
50 57.1842 2.9579999 0 120 255
50 57.1842 3.0415001 0 120 255
50 57.1842 3.1255 0 120 255
50 57.1842 3.2098 0 120 255
50 57.1842 3.2946 0 120 255
50 57.1842 3.3799 0 120 255
50 57.1842 3.4656999 0 120 255
50 57.1842 3.5518999 0 120 255
50 57.1842 3.6387 0 120 255
50 57.1842 3.7260001 0 120 255
50 57.141201 0.034499999 0 120 255
50 57.141201 0.1122 0 120 255
50 57.141201 0.18979999 0 120 255
50 57.141201 0.2674 0 120 255
50 57.141201 0.345 0 120 255
50 57.141201 0.42250001 0 120 255
50 57.141201 0.5 0 120 255
50 57.141201 0.57749999 0 120 255
50 57.141201 0.65499997 0 120 255
50 57.141201 0.73259997 0 120 255
50 57.141201 0.81019998 0 120 255
50 57.141201 0.88779998 0 120 255
50 57.141201 0.9655 0 120 255
50 57.141201 1.0432 0 120 255
50 57.141201 1.1210999 0 120 255
50 57.141201 1.199 0 120 255
50 57.141201 1.2771 0 120 255
50 57.141201 1.3552001 0 120 255
50 57.141201 1.4335001 0 120 255
50 57.141201 1.512 0 120 255
50 57.141201 1.5906 0 120 255
50 57.141201 1.6693 0 120 255
50 57.141201 1.7483 0 120 255
50 57.141201 1.8274 0 120 255
50 57.141201 1.9068 0 120 255
50 57.141201 1.9863 0 120 255
50 57.141201 2.0660999 0 120 255
50 57.141201 2.1461999 0 120 255
50 57.141201 2.2265 0 120 255
50 57.141201 2.3071001 0 120 255
50 57.141201 2.3879001 0 120 255
50 57.141201 2.4691 0 120 255
50 57.141201 2.5506001 0 120 255
50 57.141201 2.6324 0 120 255
50 57.141201 2.7145 0 120 255
50 57.141201 2.7969999 0 120 255
50 57.141201 2.8799 0 120 255
50 57.141201 2.9632001 0 120 255
50 57.141201 3.0469 0 120 255
50 57.141201 3.131 0 120 255
50 57.141201 3.2155001 0 120 255
50 57.141201 3.3004999 0 120 255
50 57.141201 3.3859 0 120 255
50 57.141201 3.4719 0 120 255
50 57.141201 3.5583 0 120 255
50 57.141201 3.6452999 0 120 255
50 57.141201 3.7328 0 120 255
50 57.098099 0.033500001 0 120 255
50 57.098099 0.1114 0 120 255
50 57.098099 0.1892 0 120 255
50 57.098099 0.2669 0 120 255
50 57.098099 0.34459999 0 120 255
50 57.098099 0.42230001 0 120 255
50 57.098099 0.5 0 120 255
50 57.098099 0.57770002 0 120 255
50 57.098099 0.65539998 0 120 255
50 57.098099 0.7331 0 120 255
50 57.098099 0.81080002 0 120 255
50 57.098099 0.88859999 0 120 255
50 57.098099 0.96649998 0 120 255
50 57.098099 1.0444 0 120 255
50 57.098099 1.1224 0 120 255
50 57.098099 1.2005 0 120 255
50 57.098099 1.2787 0 120 255
50 57.098099 1.3571 0 120 255
50 57.098099 1.4355 0 120 255
50 57.098099 1.5141 0 120 255
50 57.098099 1.5929 0 120 255
50 57.098099 1.6718 0 120 255
50 57.098099 1.7509 0 120 255
50 57.098099 1.8302 0 120 255
50 57.098099 1.9098001 0 120 255
50 57.098099 1.9895 0 120 255
50 57.098099 2.0695 0 120 255
50 57.098099 2.1496999 0 120 255
50 57.098099 2.2300999 0 120 255
50 57.098099 2.3109 0 120 255
50 57.098099 2.3919001 0 120 255
50 57.098099 2.4733 0 120 255
50 57.098099 2.5548999 0 120 255
50 57.098099 2.6368999 0 120 255
50 57.098099 2.7191999 0 120 255
50 57.098099 2.8018999 0 120 255
50 57.098099 2.885 0 120 255
50 57.098099 2.9684 0 120 255
50 57.098099 3.0523 0 120 255
50 57.098099 3.1364999 0 120 255
50 57.098099 3.2212999 0 120 255
50 57.098099 3.3064001 0 120 255
50 57.098099 3.3921001 0 120 255
50 57.098099 3.4782 0 120 255
50 57.098099 3.5648 0 120 255
50 57.098099 3.6519001 0 120 255
50 57.098099 3.7395999 0 120 255
50 57.054798 0.032499999 0 120 255
50 57.054798 0.1105 0 120 255
50 57.054798 0.1885 0 120 255
50 57.054798 0.26640001 0 120 255
50 57.054798 0.3443 0 120 255
50 57.054798 0.42219999 0 120 255
50 57.054798 0.5 0 120 255
50 57.054798 0.57779998 0 120 255
50 57.054798 0.65570003 0 120 255
50 57.054798 0.73360002 0 120 255
50 57.054798 0.81150001 0 120 255
50 57.054798 0.88950002 0 120 255
50 57.054798 0.96749997 0 120 255
50 57.054798 1.0456001 0 120 255
50 57.054798 1.1237 0 120 255
50 57.054798 1.202 0 120 255
50 57.054798 1.2804 0 120 255
50 57.054798 1.3589 0 120 255
50 57.054798 1.4375 0 120 255
50 57.054798 1.5163 0 120 255
50 57.054798 1.5951999 0 120 255
50 57.054798 1.6743 0 120 255
50 57.054798 1.7536 0 120 255
50 57.054798 1.8331 0 120 255
50 57.054798 1.9128 0 120 255
50 57.054798 1.9927 0 120 255
50 57.054798 2.0727999 0 120 255
50 57.054798 2.1531999 0 120 255
50 57.054798 2.2339001 0 120 255
50 57.054798 2.3148 0 120 255
50 57.054798 2.3959999 0 120 255
50 57.054798 2.4775 0 120 255
50 57.054798 2.5592999 0 120 255
50 57.054798 2.6415 0 120 255
50 57.054798 2.724 0 120 255
50 57.054798 2.8067999 0 120 255
50 57.054798 2.8901 0 120 255
50 57.054798 2.9737 0 120 255
50 57.054798 3.0576999 0 120 255
50 57.054798 3.1422 0 120 255
50 57.054798 3.2270999 0 120 255
50 57.054798 3.3124001 0 120 255
50 57.054798 3.3982 0 120 255
50 57.054798 3.4846001 0 120 255
50 57.054798 3.5713999 0 120 255
50 57.054798 3.6587 0 120 255
50 57.054798 3.7465999 0 120 255
50 57.011299 0.031500001 0 120 255
50 57.011299 0.1097 0 120 255
50 57.011299 0.18780001 0 120 255
50 57.011299 0.26589999 0 120 255
50 57.011299 0.34400001 0 120 255
50 57.011299 0.42199999 0 120 255
50 57.011299 0.5 0 120 255
50 57.011299 0.57800001 0 120 255
50 57.011299 0.65600002 0 120 255
50 57.011299 0.73409998 0 120 255
50 57.011299 0.81220001 0 120 255
50 57.011299 0.89029998 0 120 255
50 57.011299 0.96850002 0 120 255
50 57.011299 1.0467 0 120 255
50 57.011299 1.1251 0 120 255
50 57.011299 1.2035 0 120 255
50 57.011299 1.2821 0 120 255
50 57.011299 1.3607 0 120 255
50 57.011299 1.4395 0 120 255
50 57.011299 1.5185 0 120 255
50 57.011299 1.5976 0 120 255
50 57.011299 1.6769 0 120 255
50 57.011299 1.7563 0 120 255
50 57.011299 1.836 0 120 255
50 57.011299 1.9158 0 120 255
50 57.011299 1.9959 0 120 255
50 57.011299 2.0762 0 120 255
50 57.011299 2.1568 0 120 255
50 57.011299 2.2376001 0 120 255
50 57.011299 2.3187001 0 120 255
50 57.011299 2.4001 0 120 255
50 57.011299 2.4818001 0 120 255
50 57.011299 2.5638001 0 120 255
50 57.011299 2.6461 0 120 255
50 57.011299 2.7288001 0 120 255
50 57.011299 2.8118 0 120 255
50 57.011299 2.8952999 0 120 255
50 57.011299 2.9791 0 120 255
50 57.011299 3.0632999 0 120 255
50 57.011299 3.1479001 0 120 255
50 57.011299 3.233 0 120 255
50 57.011299 3.3185 0 120 255
50 57.011299 3.4045 0 120 255
50 57.011299 3.4909999 0 120 255
50 57.011299 3.5780001 0 120 255
50 57.011299 3.6654999 0 120 255
50 57.011299 3.7535999 0 120 255
50 56.967602 0.0305 0 120 255
50 56.967602 0.1089 0 120 255
50 56.967602 0.18719999 0 120 255
50 56.967602 0.26539999 0 120 255
50 56.967602 0.3436 0 120 255
50 56.967602 0.42179999 0 120 255
50 56.967602 0.5 0 120 255
50 56.967602 0.57819998 0 120 255
50 56.967602 0.65640002 0 120 255
50 56.967602 0.73460001 0 120 255
50 56.967602 0.81279999 0 120 255
50 56.967602 0.89109999 0 120 255
50 56.967602 0.96950001 0 120 255
50 56.967602 1.0479 0 120 255
50 56.967602 1.1265 0 120 255
50 56.967602 1.2051001 0 120 255
50 56.967602 1.2838 0 120 255
50 56.967602 1.3626 0 120 255
50 56.967602 1.4416 0 120 255
50 56.967602 1.5207 0 120 255
50 56.967602 1.6 0 120 255
50 56.967602 1.6794 0 120 255
50 56.967602 1.7591 0 120 255
50 56.967602 1.8389 0 120 255
50 56.967602 1.9189 0 120 255
50 56.967602 1.9992 0 120 255
50 56.967602 2.0797 0 120 255
50 56.967602 2.1603999 0 120 255
50 56.967602 2.2414 0 120 255
50 56.967602 2.4042001 0 120 255
50 56.967602 2.4861 0 120 255
50 56.967602 2.5683 0 120 255
50 56.967602 2.6508 0 120 255
50 56.967602 2.7337 0 120 255
50 56.967602 2.8169 0 120 255
50 56.967602 2.9005001 0 120 255
50 56.967602 2.9844999 0 120 255
50 56.967602 3.0689001 0 120 255
50 56.967602 3.1537001 0 120 255
50 56.967602 3.2390001 0 120 255
50 56.967602 3.3247001 0 120 255
50 56.967602 3.4109001 0 120 255
50 56.967602 3.4976001 0 120 255
50 56.967602 3.5848 0 120 255
50 56.967602 3.6724999 0 120 255
50 56.967602 3.7607 0 120 255
50 56.923801 0.0295 0 120 255
50 56.923801 0.108 0 120 255
50 56.923801 0.1865 0 120 255
50 56.923801 0.2649 0 120 255
50 56.923801 0.34330001 0 120 255
50 56.923801 0.42160001 0 120 255
50 56.923801 0.5 0 120 255
50 56.923801 0.57840002 0 120 255
50 56.923801 0.65670002 0 120 255
50 56.923801 0.73509997 0 120 255
50 56.923801 0.81349999 0 120 255
50 56.923801 0.89200002 0 120 255
50 56.923801 0.97049999 0 120 255
50 56.923801 1.0492001 0 120 255
50 56.923801 1.1278 0 120 255
50 56.923801 1.2066 0 120 255
50 56.923801 1.2855 0 120 255
50 56.923801 1.3645 0 120 255
50 56.923801 1.4437 0 120 255
50 56.923801 1.523 0 120 255
50 56.923801 1.6023999 0 120 255
50 56.923801 1.6821001 0 120 255
50 56.923801 1.7618999 0 120 255
50 56.923801 1.8419 0 120 255
50 56.923801 1.9220999 0 120 255
50 56.923801 2.0025001 0 120 255
50 56.923801 2.0832 0 120 255
50 56.923801 2.1640999 0 120 255
50 56.923801 2.2453001 0 120 255
50 56.923801 2.4085 0 120 255
50 56.923801 2.4905 0 120 255
50 56.923801 2.5729001 0 120 255
50 56.923801 2.6556001 0 120 255
50 56.923801 2.7386 0 120 255
50 56.923801 2.822 0 120 255
50 56.923801 2.9058001 0 120 255
50 56.923801 2.99 0 120 255
50 56.923801 3.0746 0 120 255
50 56.923801 3.1596 0 120 255
50 56.923801 3.2449999 0 120 255
50 56.923801 3.3309 0 120 255
50 56.923801 3.4173 0 120 255
50 56.923801 3.5042 0 120 255
50 56.923801 3.5915999 0 120 255
50 56.923801 3.6795001 0 120 255
50 56.923801 3.7679 0 120 255
50 56.8797 0.0284 0 120 255
50 56.8797 0.1071 0 120 255
50 56.8797 0.1858 0 120 255
50 56.8797 0.26440001 0 120 255
50 56.8797 0.34290001 0 120 255
50 56.8797 0.4215 0 120 255
50 56.8797 0.5 0 120 255
50 56.8797 0.57849997 0 120 255
50 56.8797 0.65710002 0 120 255
50 56.8797 0.73559999 0 120 255
50 56.8797 0.81419998 0 120 255
50 56.8797 0.89289999 0 120 255
50 56.8797 0.9716 0 120 255
50 56.8797 1.0504 0 120 255
50 56.8797 1.1293 0 120 255
50 56.8797 1.2082 0 120 255
50 56.8797 1.2873 0 120 255
50 56.8797 1.3665 0 120 255
50 56.8797 1.4457999 0 120 255
50 56.8797 1.5253 0 120 255
50 56.8797 1.6049 0 120 255
50 56.8797 1.6847 0 120 255
50 56.8797 1.7647001 0 120 255
50 56.8797 1.8449 0 120 255
50 56.8797 1.9253 0 120 255
50 56.8797 2.0058999 0 120 255
50 56.8797 2.0867 0 120 255
50 56.8797 2.1677999 0 120 255
50 56.8797 2.2492001 0 120 255
50 56.8797 2.4126999 0 120 255
50 56.8797 2.4949999 0 120 255
50 56.8797 2.5775001 0 120 255
50 56.8797 2.6603999 0 120 255
50 56.8797 2.7435999 0 120 255
50 56.8797 2.8271999 0 120 255
50 56.8797 2.9112 0 120 255
50 56.8797 2.9956 0 120 255
50 56.8797 3.0803001 0 120 255
50 56.8797 3.1654999 0 120 255
50 56.8797 3.2512 0 120 255
50 56.8797 3.3373001 0 120 255
50 56.8797 3.4238999 0 120 255
50 56.8797 3.5109 0 120 255
50 56.8797 3.5985 0 120 255
50 56.8797 3.6866 0 120 255
50 56.8797 3.7753 0 120 255
50 56.8354 0.0273 0 120 255
50 56.8354 0.1062 0 120 255
50 56.8354 0.185 0 120 255
50 56.8354 0.2638 0 120 255
50 56.8354 0.34259999 0 120 255
50 56.8354 0.42129999 0 120 255
50 56.8354 0.5 0 120 255
50 56.8354 0.57870001 0 120 255
50 56.8354 0.65740001 0 120 255
50 56.8354 0.73619998 0 120 255
50 56.8354 0.815 0 120 255
50 56.8354 0.89380002 0 120 255
50 56.8354 0.9727 0 120 255
50 56.8354 1.0516 0 120 255
50 56.8354 1.1307 0 120 255
50 56.8354 1.2098 0 120 255
50 56.8354 1.2891001 0 120 255
50 56.8354 1.3684 0 120 255
50 56.8354 1.4479001 0 120 255
50 56.8354 1.5276 0 120 255
50 56.8354 1.6073999 0 120 255
50 56.8354 1.6874 0 120 255
50 56.8354 1.7675 0 120 255
50 56.8354 1.8479 0 120 255
50 56.8354 1.9285001 0 120 255
50 56.8354 2.0093 0 120 255
50 56.8354 2.0903001 0 120 255
50 56.8354 2.1716001 0 120 255
50 56.8354 2.2530999 0 120 255
50 56.8354 2.4171 0 120 255
50 56.8354 2.4995 0 120 255
50 56.8354 2.5822001 0 120 255
50 56.8354 2.6652999 0 120 255
50 56.8354 2.7486999 0 120 255
50 56.8354 2.8325 0 120 255
50 56.8354 2.9166 0 120 255
50 56.8354 3.0012 0 120 255
50 56.8354 3.0862 0 120 255
50 56.8354 3.1716001 0 120 255
50 56.8354 3.2574 0 120 255
50 56.8354 3.3436999 0 120 255
50 56.8354 3.4305 0 120 255
50 56.8354 3.5177 0 120 255
50 56.8354 3.6055 0 120 255
50 56.8354 3.6938 0 120 255
50 56.8354 3.7827001 0 120 255
50 56.791 0.0263 0 120 255
50 56.791 0.1053 0 120 255
50 56.791 0.18430001 0 120 255
50 56.791 0.2633 0 120 255
50 56.791 0.34220001 0 120 255
50 56.791 0.42109999 0 120 255
50 56.791 0.5 0 120 255
50 56.791 0.57889998 0 120 255
50 56.791 0.65780002 0 120 255
50 56.791 0.7367 0 120 255
50 56.791 0.81569999 0 120 255
50 56.791 0.89469999 0 120 255
50 56.791 0.97369999 0 120 255
50 56.791 1.0529 0 120 255
50 56.791 1.1321 0 120 255
50 56.791 1.2114 0 120 255
50 56.791 1.2909 0 120 255
50 56.791 1.3704 0 120 255
50 56.791 1.4500999 0 120 255
50 56.791 1.5299 0 120 255
50 56.791 1.6099 0 120 255
50 56.791 1.6901 0 120 255
50 56.791 1.7704 0 120 255
50 56.791 1.851 0 120 255
50 56.791 1.9317 0 120 255
50 56.791 2.0127001 0 120 255
50 56.791 2.0939 0 120 255
50 56.791 2.1754 0 120 255
50 56.791 2.2571001 0 120 255
50 56.791 2.4214001 0 120 255
50 56.791 2.5039999 0 120 255
50 56.791 2.5869999 0 120 255
50 56.791 2.6702001 0 120 255
50 56.791 2.7537999 0 120 255
50 56.791 2.8378 0 120 255
50 56.791 2.9222 0 120 255
50 56.791 3.0069001 0 120 255
50 56.791 3.0920999 0 120 255
50 56.791 3.1777 0 120 255
50 56.791 3.2637 0 120 255
50 56.791 3.3501999 0 120 255
50 56.791 3.4372001 0 120 255
50 56.791 3.5246 0 120 255
50 56.791 3.6126001 0 120 255
50 56.791 3.7011001 0 120 255
50 56.791 3.7902 0 120 255
50 56.7463 0.0252 0 120 255
50 56.7463 0.1044 0 120 255
50 56.7463 0.18359999 0 120 255
50 56.7463 0.26269999 0 120 255
50 56.7463 0.3418 0 120 255
50 56.7463 0.42089999 0 120 255
50 56.7463 0.5 0 120 255
50 56.7463 0.57910001 0 120 255
50 56.7463 0.65820003 0 120 255
50 56.7463 0.73729998 0 120 255
50 56.7463 0.81639999 0 120 255
50 56.7463 0.89560002 0 120 255
50 56.7463 0.97479999 0 120 255
50 56.7463 1.0542001 0 120 255
50 56.7463 1.1336 0 120 255
50 56.7463 1.2131 0 120 255
50 56.7463 1.2927001 0 120 255
50 56.7463 1.3724 0 120 255
50 56.7463 1.4523 0 120 255
50 56.7463 1.5323 0 120 255
50 56.7463 1.6125 0 120 255
50 56.7463 1.6928 0 120 255
50 56.7463 1.7733999 0 120 255
50 56.7463 1.8541 0 120 255
50 56.7463 1.9351 0 120 255
50 56.7463 2.0162001 0 120 255
50 56.7463 2.0976 0 120 255
50 56.7463 2.1793001 0 120 255
50 56.7463 2.2612 0 120 255
50 56.7463 2.4259 0 120 255
50 56.7463 2.5086999 0 120 255
50 56.7463 2.5918 0 120 255
50 56.7463 2.6752 0 120 255
50 56.7463 2.7591 0 120 255
50 56.7463 2.8432 0 120 255
50 56.7463 2.9277999 0 120 255
50 56.7463 3.0127001 0 120 255
50 56.7463 3.0980999 0 120 255
50 56.7463 3.1839001 0 120 255
50 56.7463 3.2701001 0 120 255
50 56.7463 3.3568001 0 120 255
50 56.7463 3.444 0 120 255
50 56.7463 3.5316 0 120 255
50 56.7463 3.6198001 0 120 255
50 56.7463 3.7084999 0 120 255
50 56.7463 3.7978001 0 120 255
50 56.701401 0.024 0 120 255
50 56.701401 0.1035 0 120 255
50 56.701401 0.1829 0 120 255
50 56.701401 0.2622 0 120 255
50 56.701401 0.34150001 0 120 255
50 56.701401 0.42070001 0 120 255
50 56.701401 0.5 0 120 255
50 56.701401 0.57929999 0 120 255
50 56.701401 0.65850002 0 120 255
50 56.701401 0.7378 0 120 255
50 56.701401 0.81709999 0 120 255
50 56.701401 0.89649999 0 120 255
50 56.701401 0.97600001 0 120 255
50 56.701401 1.0555 0 120 255
50 56.701401 1.1351 0 120 255
50 56.701401 1.2147 0 120 255
50 56.701401 1.2945 0 120 255
50 56.701401 1.3745 0 120 255
50 56.701401 1.4545 0 120 255
50 56.701401 1.5347 0 120 255
50 56.701401 1.6151 0 120 255
50 56.701401 1.6956 0 120 255
50 56.701401 1.7764 0 120 255
50 56.701401 1.8573 0 120 255
50 56.701401 1.9384 0 120 255
50 56.701401 2.0197999 0 120 255
50 56.701401 2.1013999 0 120 255
50 56.701401 2.1831999 0 120 255
50 56.701401 2.2653 0 120 255
50 56.701401 2.3477001 0 120 255
50 56.701401 2.4303999 0 120 255
50 56.701401 2.5134001 0 120 255
50 56.701401 2.5967 0 120 255
50 56.701401 2.6803 0 120 255
50 56.701401 2.7643001 0 120 255
50 56.701401 2.8487 0 120 255
50 56.701401 2.9333999 0 120 255
50 56.701401 3.0186 0 120 255
50 56.701401 3.1041 0 120 255
50 56.701401 3.1901 0 120 255
50 56.701401 3.2765999 0 120 255
50 56.701401 3.3635001 0 120 255
50 56.701401 3.4507999 0 120 255
50 56.701401 3.5387001 0 120 255
50 56.701401 3.6271 0 120 255
50 56.701401 3.7160001 0 120 255
50 56.701401 3.8055 0 120 255
50 56.6563 0.0229 0 120 255
50 56.6563 0.1025 0 120 255
50 56.6563 0.1821 0 120 255
50 56.6563 0.26159999 0 120 255
50 56.6563 0.34110001 0 120 255
50 56.6563 0.4206 0 120 255
50 56.6563 0.5 0 120 255
50 56.6563 0.5794 0 120 255
50 56.6563 0.65890002 0 120 255
50 56.6563 0.73839998 0 120 255
50 56.6563 0.8179 0 120 255
50 56.6563 0.89749998 0 120 255
50 56.6563 0.97710001 0 120 255
50 56.6563 1.0568 0 120 255
50 56.6563 1.1366 0 120 255
50 56.6563 1.2164 0 120 255
50 56.6563 1.2964 0 120 255
50 56.6563 1.3765 0 120 255
50 56.6563 1.4568 0 120 255
50 56.6563 1.5372 0 120 255
50 56.6563 1.6177 0 120 255
50 56.6563 1.6985 0 120 255
50 56.6563 1.7794 0 120 255
50 56.6563 1.8605 0 120 255
50 56.6563 1.9418 0 120 255
50 56.6563 2.0232999 0 120 255
50 56.6563 2.1050999 0 120 255
50 56.6563 2.1872001 0 120 255
50 56.6563 2.2695 0 120 255
50 56.6563 2.3520999 0 120 255
50 56.6563 2.4349 0 120 255
50 56.6563 2.5181 0 120 255
50 56.6563 2.6015999 0 120 255
50 56.6563 2.6854999 0 120 255
50 56.6563 2.7697001 0 120 255
50 56.6563 2.8541999 0 120 255
50 56.6563 2.9391999 0 120 255
50 56.6563 3.0244999 0 120 255
50 56.6563 3.1103001 0 120 255
50 56.6563 3.1965001 0 120 255
50 56.6563 3.2830999 0 120 255
50 56.6563 3.3701999 0 120 255
50 56.6563 3.4577999 0 120 255
50 56.6563 3.5459001 0 120 255
50 56.6563 3.6345 0 120 255
50 56.6563 3.7235999 0 120 255
50 56.6563 3.8132999 0 120 255
50 56.611 0.0218 0 120 255
50 56.611 0.1016 0 120 255
50 56.611 0.1814 0 120 255
50 56.611 0.26109999 0 120 255
50 56.611 0.3407 0 120 255
50 56.611 0.42039999 0 120 255
50 56.611 0.5 0 120 255
50 56.611 0.57959998 0 120 255
50 56.611 0.65930003 0 120 255
50 56.611 0.73890001 0 120 255
50 56.611 0.8186 0 120 255
50 56.611 0.89840001 0 120 255
50 56.611 0.97820002 0 120 255
50 56.611 1.0581 0 120 255
50 56.611 1.1381 0 120 255
50 56.611 1.2181 0 120 255
50 56.611 1.2983 0 120 255
50 56.611 1.3786 0 120 255
50 56.611 1.4591 0 120 255
50 56.611 1.5396 0 120 255
50 56.611 1.6204 0 120 255
50 56.611 1.7013 0 120 255
50 56.611 1.7824 0 120 255
50 56.611 1.8637 0 120 255
50 56.611 1.9452 0 120 255
50 56.611 2.027 0 120 255
50 56.611 2.109 0 120 255
50 56.611 2.1912 0 120 255
50 56.611 2.2737 0 120 255
50 56.611 2.3564999 0 120 255
50 56.611 2.4395001 0 120 255
50 56.611 2.5229001 0 120 255
50 56.611 2.6066 0 120 255
50 56.611 2.6907001 0 120 255
50 56.611 2.7751 0 120 255
50 56.611 2.8598001 0 120 255
50 56.611 2.9449999 0 120 255
50 56.611 3.0304999 0 120 255
50 56.611 3.1164999 0 120 255
50 56.611 3.2028999 0 120 255
50 56.611 3.2897 0 120 255
50 56.611 3.3771 0 120 255
50 56.611 3.4647999 0 120 255
50 56.611 3.5531001 0 120 255
50 56.611 3.6419001 0 120 255
50 56.611 3.7313001 0 120 255
50 56.611 3.8211999 0 120 255
50 56.565498 0.0206 0 120 255
50 56.565498 0.1006 0 120 255
50 56.565498 0.1806 0 120 255
50 56.565498 0.26050001 0 120 255
50 56.565498 0.34029999 0 120 255
50 56.565498 0.42019999 0 120 255
50 56.565498 0.5 0 120 255
50 56.565498 0.57980001 0 120 255
50 56.565498 0.65969998 0 120 255
50 56.565498 0.73949999 0 120 255
50 56.565498 0.81940001 0 120 255
50 56.565498 0.8994 0 120 255
50 56.565498 0.97939998 0 120 255
50 56.565498 1.0594 0 120 255
50 56.565498 1.1396 0 120 255
50 56.565498 1.2199 0 120 255
50 56.565498 1.3002 0 120 255
50 56.565498 1.3807 0 120 255
50 56.565498 1.4614 0 120 255
50 56.565498 1.5422 0 120 255
50 56.565498 1.6231 0 120 255
50 56.565498 1.7042 0 120 255
50 56.565498 1.7855 0 120 255
50 56.565498 1.867 0 120 255
50 56.565498 1.9487 0 120 255
50 56.565498 2.0307 0 120 255
50 56.565498 2.1127999 0 120 255
50 56.565498 2.1953001 0 120 255
50 56.565498 2.2780001 0 120 255
50 56.565498 2.3608999 0 120 255
50 56.565498 2.4442 0 120 255
50 56.565498 2.5278001 0 120 255
50 56.565498 2.6117001 0 120 255
50 56.565498 2.6960001 0 120 255
50 56.565498 2.7806001 0 120 255
50 56.565498 2.8655 0 120 255
50 56.565498 2.9509001 0 120 255
50 56.565498 3.0366001 0 120 255
50 56.565498 3.1228001 0 120 255
50 56.565498 3.2093999 0 120 255
50 56.565498 3.2965 0 120 255
50 56.565498 3.3840001 0 120 255
50 56.565498 3.4719999 0 120 255
50 56.565498 3.5604999 0 120 255
50 56.565498 3.6494999 0 120 255
50 56.565498 3.7391 0 120 255
50 56.565498 3.8292 0 120 255
50 56.519798 0.0195 0 120 255
50 56.519798 0.099699996 0 120 255
50 56.519798 0.1798 0 120 255
50 56.519798 0.2599 0 120 255
50 56.519798 0.34 0 120 255
50 56.519798 0.41999999 0 120 255
50 56.519798 0.5 0 120 255
50 56.519798 0.57999998 0 120 255
50 56.519798 0.66000003 0 120 255
50 56.519798 0.74010003 0 120 255
50 56.519798 0.82020003 0 120 255
50 56.519798 0.90030003 0 120 255
50 56.519798 0.98049998 0 120 255
50 56.519798 1.0608 0 120 255
50 56.519798 1.1411999 0 120 255
50 56.519798 1.2216001 0 120 255
50 56.519798 1.3022 0 120 255
50 56.519798 1.3829 0 120 255
50 56.519798 1.4637001 0 120 255
50 56.519798 1.5447 0 120 255
50 56.519798 1.6258 0 120 255
50 56.519798 1.7071 0 120 255
50 56.519798 1.7886 0 120 255
50 56.519798 1.8703001 0 120 255
50 56.519798 1.9522001 0 120 255
50 56.519798 2.0344 0 120 255
50 56.519798 2.1168001 0 120 255
50 56.519798 2.1993999 0 120 255
50 56.519798 2.2823 0 120 255
50 56.519798 2.3655 0 120 255
50 56.519798 2.4489999 0 120 255
50 56.519798 2.5327001 0 120 255
50 56.519798 2.6169 0 120 255
50 56.519798 2.7012999 0 120 255
50 56.519798 2.7860999 0 120 255
50 56.519798 2.8713 0 120 255
50 56.519798 2.9568999 0 120 255
50 56.519798 3.0427999 0 120 255
50 56.519798 3.1292 0 120 255
50 56.519798 3.2160001 0 120 255
50 56.519798 3.3032999 0 120 255
50 56.519798 3.391 0 120 255
50 56.519798 3.4791999 0 120 255
50 56.519798 3.5678999 0 120 255
50 56.519798 3.6572001 0 120 255
50 56.519798 3.7469001 0 120 255
50 56.519798 3.8373001 0 120 255
50 56.473801 0.018300001 0 120 255
50 56.473801 0.098700002 0 120 255
50 56.473801 0.17900001 0 120 255
50 56.473801 0.25929999 0 120 255
50 56.473801 0.3396 0 120 255
50 56.473801 0.41980001 0 120 255
50 56.473801 0.5 0 120 255
50 56.473801 0.58020002 0 120 255
50 56.473801 0.66039997 0 120 255
50 56.473801 0.74070001 0 120 255
50 56.473801 0.82099998 0 120 255
50 56.473801 0.90130001 0 120 255
50 56.473801 0.9817 0 120 255
50 56.473801 1.0622 0 120 255
50 56.473801 1.1427 0 120 255
50 56.473801 1.2234 0 120 255
50 56.473801 1.3042001 0 120 255
50 56.473801 1.3851 0 120 255
50 56.473801 1.4661 0 120 255
50 56.473801 1.5473 0 120 255
50 56.473801 1.6286 0 120 255
50 56.473801 1.7101001 0 120 255
50 56.473801 1.7918 0 120 255
50 56.473801 1.8737 0 120 255
50 56.473801 1.9558001 0 120 255
50 56.473801 2.0381999 0 120 255
50 56.473801 2.1206999 0 120 255
50 56.473801 2.2035999 0 120 255
50 56.473801 2.2867 0 120 255
50 56.473801 2.3701 0 120 255
50 56.473801 2.4537001 0 120 255
50 56.473801 2.5376999 0 120 255
50 56.473801 2.6221001 0 120 255
50 56.473801 2.7067001 0 120 255
50 56.473801 2.7916999 0 120 255
50 56.473801 2.8771 0 120 255
50 56.473801 2.9628999 0 120 255
50 56.473801 3.0490999 0 120 255
50 56.473801 3.1357 0 120 255
50 56.473801 3.2227001 0 120 255
50 56.473801 3.3102 0 120 255
50 56.473801 3.3980999 0 120 255
50 56.473801 3.4865 0 120 255
50 56.473801 3.5755 0 120 255
50 56.473801 3.6649001 0 120 255
50 56.473801 3.7549 0 120 255
50 56.473801 3.8455 0 120 255
50 56.427601 0.017100001 0 120 255
50 56.427601 0.0977 0 120 255
50 56.427601 0.17820001 0 120 255
50 56.427601 0.25870001 0 120 255
50 56.427601 0.33919999 0 120 255
50 56.427601 0.41960001 0 120 255
50 56.427601 0.5 0 120 255
50 56.427601 0.58039999 0 120 255
50 56.427601 0.66079998 0 120 255
50 56.427601 0.74129999 0 120 255
50 56.427601 0.82179999 0 120 255
50 56.427601 0.9023 0 120 255
50 56.427601 0.98290002 0 120 255
50 56.427601 1.0635999 0 120 255
50 56.427601 1.1443 0 120 255
50 56.427601 1.2252001 0 120 255
50 56.427601 1.3062 0 120 255
50 56.427601 1.3873 0 120 255
50 56.427601 1.4685 0 120 255
50 56.427601 1.5499001 0 120 255
50 56.427601 1.6314 0 120 255
50 56.427601 1.7131 0 120 255
50 56.427601 1.795 0 120 255
50 56.427601 1.8771 0 120 255
50 56.427601 1.9594001 0 120 255
50 56.427601 2.0420001 0 120 255
50 56.427601 2.1248 0 120 255
50 56.427601 2.2077999 0 120 255
50 56.427601 2.2911 0 120 255
50 56.427601 2.3747001 0 120 255
50 56.427601 2.4586 0 120 255
50 56.427601 2.5427999 0 120 255
50 56.427601 2.6273 0 120 255
50 56.427601 2.7121999 0 120 255
50 56.427601 2.7974 0 120 255
50 56.427601 2.8829999 0 120 255
50 56.427601 2.9690001 0 120 255
50 56.427601 3.0553999 0 120 255
50 56.427601 3.1422 0 120 255
50 56.427601 3.2295001 0 120 255
50 56.427601 3.3171999 0 120 255
50 56.427601 3.4052999 0 120 255
50 56.427601 3.494 0 120 255
50 56.427601 3.5831001 0 120 255
50 56.427601 3.6728001 0 120 255
50 56.427601 3.763 0 120 255
50 56.427601 3.8538001 0 120 255
50 56.381199 0.015900001 0 120 255
50 56.381199 0.096699998 0 120 255
50 56.381199 0.17739999 0 120 255
50 56.381199 0.2581 0 120 255
50 56.381199 0.33880001 0 120 255
50 56.381199 0.41940001 0 120 255
50 56.381199 0.5 0 120 255
50 56.381199 0.58060002 0 120 255
50 56.381199 0.66119999 0 120 255
50 56.381199 0.74190003 0 120 255
50 56.381199 0.82260001 0 120 255
50 56.381199 0.90329999 0 120 255
50 56.381199 0.98409998 0 120 255
50 56.381199 1.0650001 0 120 255
50 56.381199 1.146 0 120 255
50 56.381199 1.227 0 120 255
50 56.381199 1.3082 0 120 255
50 56.381199 1.3895 0 120 255
50 56.381199 1.4709001 0 120 255
50 56.381199 1.5525 0 120 255
50 56.381199 1.6342 0 120 255
50 56.381199 1.7162 0 120 255
50 56.381199 1.7983 0 120 255
50 56.381199 1.8806 0 120 255
50 56.381199 1.9631 0 120 255
50 56.381199 2.0458 0 120 255
50 56.381199 2.1287999 0 120 255
50 56.381199 2.2121 0 120 255
50 56.381199 2.3794 0 120 255
50 56.381199 2.4635 0 120 255
50 56.381199 2.5479 0 120 255
50 56.381199 2.6327 0 120 255
50 56.381199 2.7177999 0 120 255
50 56.381199 2.8032 0 120 255
50 56.381199 2.8889999 0 120 255
50 56.381199 2.9751999 0 120 255
50 56.381199 3.0618 0 120 255
50 56.381199 3.1487999 0 120 255
50 56.381199 3.2363 0 120 255
50 56.381199 3.3241999 0 120 255
50 56.381199 3.4126 0 120 255
50 56.381199 3.5014999 0 120 255
50 56.381199 3.5908999 0 120 255
50 56.381199 3.6808 0 120 255
50 56.381199 3.7711999 0 120 255
50 56.381199 3.8622 0 120 255
50 56.334499 0.0147 0 120 255
50 56.334499 0.095700003 0 120 255
50 56.334499 0.17659999 0 120 255
50 56.334499 0.25749999 0 120 255
50 56.334499 0.33829999 0 120 255
50 56.334499 0.4192 0 120 255
50 56.334499 0.5 0 120 255
50 56.334499 0.5808 0 120 255
50 56.334499 0.66170001 0 120 255
50 56.334499 0.74250001 0 120 255
50 56.334499 0.82340002 0 120 255
50 56.334499 0.90429997 0 120 255
50 56.334499 0.9853 0 120 255
50 56.334499 1.0664001 0 120 255
50 56.334499 1.1476001 0 120 255
50 56.334499 1.2289 0 120 255
50 56.334499 1.3102 0 120 255
50 56.334499 1.3917 0 120 255
50 56.334499 1.4734 0 120 255
50 56.334499 1.5552 0 120 255
50 56.334499 1.6371 0 120 255
50 56.334499 1.7192 0 120 255
50 56.334499 1.8016 0 120 255
50 56.334499 1.8841 0 120 255
50 56.334499 1.9668 0 120 255
50 56.334499 2.0497999 0 120 255
50 56.334499 2.1329999 0 120 255
50 56.334499 2.2163999 0 120 255
50 56.334499 2.3842001 0 120 255
50 56.334499 2.4684999 0 120 255
50 56.334499 2.5531001 0 120 255
50 56.334499 2.6380999 0 120 255
50 56.334499 2.7234001 0 120 255
50 56.334499 2.809 0 120 255
50 56.334499 2.8951001 0 120 255
50 56.334499 2.9814999 0 120 255
50 56.334499 3.0683 0 120 255
50 56.334499 3.1556001 0 120 255
50 56.334499 3.2432001 0 120 255
50 56.334499 3.3313999 0 120 255
50 56.334499 3.4200001 0 120 255
50 56.334499 3.5091 0 120 255
50 56.334499 3.5987 0 120 255
50 56.334499 3.6888001 0 120 255
50 56.334499 3.7795 0 120 255
50 56.334499 3.8706999 0 120 255
50 56.287601 0.0134 0 120 255
50 56.287601 0.094599999 0 120 255
50 56.287601 0.1758 0 120 255
50 56.287601 0.25690001 0 120 255
50 56.287601 0.33790001 0 120 255
50 56.287601 0.419 0 120 255
50 56.287601 0.5 0 120 255
50 56.287601 0.58099997 0 120 255
50 56.287601 0.66210002 0 120 255
50 56.287601 0.74309999 0 120 255
50 56.287601 0.82419997 0 120 255
50 56.287601 0.90539998 0 120 255
50 56.287601 0.98659998 0 120 255
50 56.287601 1.0678999 0 120 255
50 56.287601 1.1493 0 120 255
50 56.287601 1.2307 0 120 255
50 56.287601 1.3123 0 120 255
50 56.287601 1.3940001 0 120 255
50 56.287601 1.4759001 0 120 255
50 56.287601 1.5579 0 120 255
50 56.287601 1.64 0 120 255
50 56.287601 1.7224 0 120 255
50 56.287601 1.8049001 0 120 255
50 56.287601 1.8875999 0 120 255
50 56.287601 1.9706 0 120 255
50 56.287601 2.0537 0 120 255
50 56.287601 2.1372001 0 120 255
50 56.287601 2.2207999 0 120 255
50 56.287601 2.3889999 0 120 255
50 56.287601 2.4735 0 120 255
50 56.287601 2.5583999 0 120 255
50 56.287601 2.6436 0 120 255
50 56.287601 2.7291 0 120 255
50 56.287601 2.8148999 0 120 255
50 56.287601 2.9012001 0 120 255
50 56.287601 2.9877999 0 120 255
50 56.287601 3.0748999 0 120 255
50 56.287601 3.1624 0 120 255
50 56.287601 3.2502999 0 120 255
50 56.287601 3.3385999 0 120 255
50 56.287601 3.4275 0 120 255
50 56.287601 3.5167999 0 120 255
50 56.287601 3.6066 0 120 255
50 56.287601 3.697 0 120 255
50 56.287601 3.7879 0 120 255
50 56.287601 3.8794 0 120 255
50 56.240501 0.0121 0 120 255
50 56.240501 0.093599997 0 120 255
50 56.240501 0.1749 0 120 255
50 56.240501 0.25619999 0 120 255
50 56.240501 0.33750001 0 120 255
50 56.240501 0.4188 0 120 255
50 56.240501 0.5 0 120 255
50 56.240501 0.5812 0 120 255
50 56.240501 0.66250002 0 120 255
50 56.240501 0.74379998 0 120 255
50 56.240501 0.8251 0 120 255
50 56.240501 0.90640002 0 120 255
50 56.240501 0.98790002 0 120 255
50 56.240501 1.0693001 0 120 255
50 56.240501 1.1509 0 120 255
50 56.240501 1.2326 0 120 255
50 56.240501 1.3144 0 120 255
50 56.240501 1.3963 0 120 255
50 56.240501 1.4784 0 120 255
50 56.240501 1.5606 0 120 255
50 56.240501 1.643 0 120 255
50 56.240501 1.7255 0 120 255
50 56.240501 1.8083 0 120 255
