ply
format ascii 1.0
comment PCL generated
element vertex 1264
property float x
property float y
property float z
property uchar red
property uchar green
property uchar blue
element camera 0
property float view_px
property float view_py
property float view_pz
property float x_axisx
property float x_axisy
property float x_axisz
property float y_axisx
property float y_axisy
property float y_axisz
property float z_axisx
property float z_axisy
property float z_axisz
property float focal
property float scalex
property float scaley
property float centerx
property float centery
property int viewportx
property int viewporty
property float k1
property float k2
end_header
54.805599 57.292702 1.1443 255 220 0
54.858299 57.353901 1.1763999 255 220 0
54.892899 57.394001 1.2114 255 220 0
54.918701 57.423901 1.2477 255 220 0
54.938702 57.447102 1.2848001 255 220 0
54.9543 57.465302 1.3227 255 220 0
54.966301 57.479198 1.3614 255 220 0
54.975101 57.489399 1.4008 255 220 0
54.9809 57.496101 1.441 255 220 0
54.9837 57.499401 1.4822 255 220 0
54.983501 57.4991 1.5245 255 220 0
54.979801 57.4949 1.5682 255 220 0
54.972301 57.486099 1.6136 255 220 0
54.959702 57.4716 1.6612999 255 220 0
54.939999 57.4487 1.7122999 255 220 0
54.907398 57.4109 1.7695 255 220 0
54.717098 57.189999 2.1341 255 220 0
54.797901 57.283798 2.1413 255 220 0
54.843399 57.336601 2.1651001 255 220 0
54.8773 57.3759 2.194 255 220 0
54.904301 57.4072 2.2261 255 220 0
54.884701 57.352402 0.1646 255 220 0
54.926102 57.400902 0.2105 255 220 0
54.9534 57.432899 0.25420001 255 220 0
54.973099 57.455898 0.2965 255 220 0
54.987598 57.4729 0.338 255 220 0
54.998001 57.4851 0.37900001 255 220 0
55.0051 57.4935 0.41949999 255 220 0
55.0093 57.498299 0.4598 255 220 0
55.010601 57.499901 0.5 255 220 0
55.0093 57.498299 0.5402 255 220 0
55.0051 57.4935 0.58050001 255 220 0
54.998001 57.4851 0.62099999 255 220 0
54.987598 57.4729 0.662 255 220 0
54.973099 57.455898 0.70349997 255 220 0
54.9534 57.432899 0.74580002 255 220 0
54.926102 57.400902 0.7895 255 220 0
54.884701 57.352402 0.83539999 255 220 0
54.757702 57.2038 1.113 255 220 0
54.8494 57.3111 1.1387 255 220 0
54.893101 57.362202 1.1723 255 220 0
54.924099 57.398602 1.2078 255 220 0
54.948002 57.426498 1.2443 255 220 0
54.966801 57.448502 1.2816 255 220 0
54.981602 57.4659 1.3195 255 220 0
54.993099 57.479401 1.3581001 255 220 0
55.001598 57.489399 1.3974 255 220 0
55.007301 57.495998 1.4375 255 220 0
55.010201 57.499401 1.4785 255 220 0
55.0103 57.4995 1.5206 255 220 0
55.007198 57.4958 1.5639 255 220 0
55.0005 57.487999 1.6088001 255 220 0
54.989399 57.474998 1.6558 255 220 0
54.972198 57.454899 1.7057 255 220 0
54.945301 57.423401 1.7603 255 220 0
54.894798 57.364201 1.826 255 220 0
54.774601 57.223499 2.1136999 255 220 0
54.834702 57.2938 2.1308 255 220 0
54.875301 57.3414 2.1566999 255 220 0
54.906799 57.3783 2.1866 255 220 0
54.932301 57.408199 2.2191999 255 220 0
54.858398 57.289001 0.1173 255 220 0
54.9226 57.364799 0.16689999 255 220 0
54.958 57.406601 0.212 255 220 0
54.982601 57.435699 0.25529999 255 220 0
55.000702 57.4571 0.29730001 255 220 0
55.014198 57.473 0.33860001 255 220 0
55.023998 57.4846 0.37940001 255 220 0
55.030701 57.492599 0.41980001 255 220 0
55.034698 57.4972 0.45989999 255 220 0
55.0359 57.498699 0.5 255 220 0
55.034698 57.4972 0.54009998 255 220 0
55.030701 57.492599 0.58020002 255 220 0
55.023998 57.4846 0.62059999 255 220 0
55.014198 57.473 0.66140002 255 220 0
55.000702 57.4571 0.70270002 255 220 0
54.982601 57.435699 0.74470001 255 220 0
54.958 57.406601 0.78799999 255 220 0
54.9226 57.364799 0.83310002 255 220 0
54.858398 57.289001 0.88270003 255 220 0
54.824402 57.248901 1.1035 255 220 0
54.886002 57.321602 1.1345 255 220 0
54.9245 57.367001 1.169 255 220 0
54.953098 57.400799 1.2048 255 220 0
54.975399 57.4272 1.2414 255 220 0
54.993301 57.448299 1.2787 255 220 0
55.0075 57.465099 1.3167 255 220 0
55.0186 57.478199 1.3552001 255 220 0
55.026901 57.487999 1.3944 255 220 0
55.032501 57.494598 1.4344 255 220 0
55.0355 57.4981 1.4753 255 220 0
55.035702 57.498402 1.5171 255 220 0
55.033001 57.4953 1.5601 255 220 0
55.027 57.488201 1.6047 255 220 0
55.016998 57.476299 1.6511 255 220 0
55.001701 57.458199 1.7000999 255 220 0
54.978401 57.430698 1.7531 255 220 0
54.9394 57.384602 1.8137 255 220 0
54.816002 57.238899 2.1012001 255 220 0
54.867298 57.2995 2.1222999 255 220 0
54.904701 57.343601 2.1494999 255 220 0
54.934299 57.3787 2.1802001 255 220 0
54.958698 57.407501 2.2132001 255 220 0
54.905701 57.312401 0.1211 255 220 0
54.9557 57.372002 0.1688 255 220 0
54.987202 57.4095 0.2133 255 220 0
55.0098 57.436401 0.25619999 255 220 0
55.026798 57.4566 0.29800001 255 220 0
55.039501 57.471802 0.33919999 255 220 0
55.048801 57.482899 0.37979999 255 220 0
55.055199 57.490501 0.41999999 255 220 0
55.058899 57.4949 0.4601 255 220 0
55.060101 57.496399 0.5 255 220 0
55.058899 57.4949 0.5399 255 220 0
55.055199 57.490501 0.57999998 255 220 0
55.048801 57.482899 0.62019998 255 220 0
55.039501 57.471802 0.66079998 255 220 0
55.026798 57.4566 0.70200002 255 220 0
55.0098 57.436401 0.74379998 255 220 0
54.987202 57.4095 0.78670001 255 220 0
54.9557 57.372002 0.8312 255 220 0
54.905701 57.312401 0.87889999 255 220 0
54.867401 57.266701 1.0984 255 220 0
54.918499 57.327599 1.1311001 255 220 0
54.953499 57.369301 1.1661 255 220 0
54.980202 57.4011 1.2021 255 220 0
55.0014 57.426399 1.2388999 255 220 0
55.018501 57.446701 1.2762001 255 220 0
55.0322 57.4631 1.3141 255 220 0
55.0429 57.475899 1.3526 255 220 0
55.050999 57.4855 1.3918 255 220 0
55.056499 57.4921 1.4317 255 220 0
55.059502 57.495701 1.4724 255 220 0
55.060001 57.496201 1.5140001 255 220 0
55.057598 57.493401 1.5568 255 220 0
55.0522 57.4869 1.601 255 220 0
55.042999 57.476002 1.647 255 220 0
55.029099 57.4594 1.6953 255 220 0
55.008301 57.434601 1.7471 255 220 0
54.975498 57.3955 1.8049001 255 220 0
54.900101 57.305698 1.8828 255 220 0
54.7752 57.156799 2.0818 255 220 0
54.851101 57.247299 2.0917001 255 220 0
54.897202 57.3022 2.1150999 255 220 0
54.932098 57.3438 2.1434 255 220 0
54.9604 57.377499 2.1745999 255 220 0
54.983799 57.405499 2.2079 255 220 0
54.943001 57.324299 0.1237 255 220 0
54.985699 57.375702 0.17039999 255 220 0
55.0144 57.410198 0.21439999 255 220 0
55.0355 57.4356 0.257 255 220 0
55.051498 57.4548 0.2987 255 220 0
55.063599 57.469299 0.3396 255 220 0
55.072399 57.48 0.38010001 255 220 0
55.078499 57.487301 0.42030001 255 220 0
55.0821 57.4916 0.46020001 255 220 0
55.083302 57.493 0.5 255 220 0
55.0821 57.4916 0.53979999 255 220 0
55.078499 57.487301 0.57969999 255 220 0
55.072399 57.48 0.61989999 255 220 0
55.063599 57.469299 0.66039997 255 220 0
55.051498 57.4548 0.70130002 255 220 0
55.0355 57.4356 0.74299997 255 220 0
55.0144 57.410198 0.78560001 255 220 0
54.985699 57.375702 0.82959998 255 220 0
54.943001 57.324299 0.87629998 255 220 0
54.813301 57.1684 1.0678 255 220 0
54.903 57.276199 1.0947 255 220 0
54.948101 57.330399 1.1284 255 220 0
54.980499 57.3694 1.1636 255 220 0
55.005798 57.399799 1.1998 255 220 0
55.0261 57.424198 1.2366 255 220 0
55.0425 57.444 1.274 255 220 0
55.055698 57.4599 1.3119 255 220 0
55.0662 57.4725 1.3504 255 220 0
55.0741 57.481998 1.3894 255 220 0
55.079601 57.488499 1.4292001 255 220 0
55.0826 57.492199 1.4698 255 220 0
55.083199 57.492901 1.5113 255 220 0
55.0811 57.490398 1.5539 255 220 0
55.076099 57.484402 1.5978 255 220 0
55.0676 57.474201 1.6434 255 220 0
55.054798 57.458698 1.6912 255 220 0
55.0359 57.436001 1.7421 255 220 0
55.007099 57.401402 1.798 255 220 0
54.954102 57.3377 1.8659 255 220 0
54.819698 57.176102 2.0682001 255 220 0
54.882401 57.251499 2.0841999 255 220 0
54.9249 57.302601 2.1091001 255 220 0
54.958 57.3424 2.1380999 255 220 0
54.9851 57.375 2.1696 255 220 0
55.007801 57.402302 2.2032001 255 220 0
54.903301 57.243401 0.074100003 255 220 0
54.975201 57.330601 0.1257 255 220 0
55.013302 57.376801 0.1717 255 220 0
55.039902 57.4091 0.2154 255 220 0
55.059799 57.4333 0.25780001 255 220 0
55.075001 57.451698 0.2992 255 220 0
55.086601 57.465698 0.34009999 255 220 0
55.0951 57.476101 0.3804 255 220 0
55.101002 57.4832 0.42039999 255 220 0
55.104401 57.4874 0.4603 255 220 0
55.105499 57.488701 0.5 255 220 0
55.104401 57.4874 0.53969997 255 220 0
55.101002 57.4832 0.57959998 255 220 0
55.0951 57.476101 0.6196 255 220 0
55.086601 57.465698 0.65990001 255 220 0
55.075001 57.451698 0.7008 255 220 0
55.059799 57.4333 0.74220002 255 220 0
55.039902 57.4091 0.78460002 255 220 0
55.013302 57.376801 0.8283 255 220 0
54.975201 57.330601 0.8743 255 220 0
54.903301 57.243401 0.92589998 255 220 0
54.867001 57.199402 1.0612 255 220 0
54.934399 57.281101 1.0918 255 220 0
54.975498 57.330898 1.126 255 220 0
55.006001 57.368 1.1615 255 220 0
55.030102 57.397202 1.1978 255 220 0
55.049599 57.420898 1.2347 255 220 0
55.065498 57.440201 1.272 255 220 0
55.0784 57.455799 1.3099 255 220 0
55.0886 57.468102 1.3483 255 220 0
55.096298 57.477501 1.3873 255 220 0
55.1017 57.4841 1.427 255 220 0
55.104801 57.487801 1.4675 255 220 0
55.105499 57.488701 1.5088 255 220 0
55.103699 57.486401 1.5512 255 220 0
55.098999 57.480801 1.5949 255 220 0
55.091099 57.471199 1.6402 255 220 0
55.079102 57.456699 1.6876 255 220 0
55.061699 57.435501 1.7378 255 220 0
55.035702 57.403999 1.7924 255 220 0
54.992001 57.351002 1.8559999 255 220 0
54.855499 57.185398 2.0587001 255 220 0
54.911098 57.2528 2.0778999 255 220 0
54.950901 57.301201 2.1039 255 220 0
54.982601 57.3396 2.1334 255 220 0
55.008801 57.3713 2.1652999 255 220 0
55.0308 57.398102 2.1989999 255 220 0
54.946201 57.262299 0.077699997 255 220 0
55.0042 57.333302 0.1274 255 220 0
55.039101 57.375999 0.1728 255 220 0
55.064098 57.406601 0.21619999 255 220 0
55.083 57.429798 0.25839999 255 220 0
55.097599 57.447601 0.29969999 255 220 0
55.1087 57.461201 0.34040001 255 220 0
55.116901 57.471298 0.38069999 255 220 0
55.122601 57.478199 0.4206 255 220 0
55.1259 57.4823 0.46039999 255 220 0
55.126999 57.483601 0.5 255 220 0
55.1259 57.4823 0.53960001 255 220 0
55.122601 57.478199 0.5794 255 220 0
55.116901 57.471298 0.61930001 255 220 0
55.1087 57.461201 0.65960002 255 220 0
55.097599 57.447601 0.70029998 255 220 0
55.083 57.429798 0.74159998 255 220 0
55.064098 57.406601 0.78380001 255 220 0
55.039101 57.375999 0.8272 255 220 0
55.0042 57.333302 0.87260002 255 220 0
54.946201 57.262299 0.92229998 255 220 0
54.9053 57.2122 1.0573 255 220 0
54.963001 57.282902 1.0894001 255 220 0
55.001202 57.329601 1.124 255 220 0
55.030102 57.365101 1.1597 255 220 0
55.053299 57.393398 1.196 255 220 0
55.072201 57.4165 1.2329 255 220 0
55.087601 57.435398 1.2703 255 220 0
55.100101 57.450699 1.3082 255 220 0
55.1101 57.462898 1.3465 255 220 0
55.117699 57.472301 1.3855 255 220 0
55.1231 57.478802 1.4251 255 220 0
55.126202 57.482601 1.4655 255 220 0
55.126999 57.483601 1.5067 255 220 0
55.125301 57.481602 1.5489 255 220 0
55.120998 57.476299 1.5924 255 220 0
55.113499 57.467098 1.6375 255 220 0
55.102299 57.4533 1.6844 255 220 0
55.085999 57.433399 1.7341 255 220 0
55.062099 57.404202 1.7877001 255 220 0
55.023899 57.357498 1.8487999 255 220 0
54.786301 57.066601 2.0529001 255 220 0
54.886799 57.189602 2.0513999 255 220 0
54.937698 57.2519 2.0725999 255 220 0
54.975498 57.298199 2.0994 255 220 0
55.006001 57.335499 2.1294 255 220 0
55.031399 57.3666 2.1615 255 220 0
55.052898 57.392899 2.1953001 255 220 0
54.980202 57.270901 0.080200002 255 220 0
55.030899 57.333401 0.1287 255 220 0
55.063301 57.373501 0.1737 255 220 0
55.087101 57.402802 0.21690001 255 220 0
55.105202 57.425201 0.25889999 255 220 0
55.119202 57.442501 0.3001 255 220 0
55.130001 57.455799 0.3407 255 220 0
55.137901 57.465599 0.3809 255 220 0
55.143398 57.472401 0.4208 255 220 0
55.146599 57.476398 0.46039999 255 220 0
55.147701 57.477699 0.5 255 220 0
55.146599 57.476398 0.53960001 255 220 0
55.143398 57.472401 0.57920003 255 220 0
55.137901 57.465599 0.61909997 255 220 0
55.130001 57.455799 0.65930003 255 220 0
55.119202 57.442501 0.69989997 255 220 0
55.105202 57.425201 0.74110001 255 220 0
55.087101 57.402802 0.78310001 255 220 0
55.063301 57.373501 0.82630002 255 220 0
55.030899 57.333401 0.87129998 255 220 0
54.980202 57.270901 0.91979998 255 220 0
54.9375 57.218102 1.0545 255 220 0
54.989399 57.2822 1.0874 255 220 0
55.025398 57.326599 1.1223 255 220 0
55.0532 57.360901 1.1581 255 220 0
55.0755 57.388599 1.1945 255 220 0
55.0938 57.411201 1.2314 255 220 0
55.108898 57.429699 1.2688 255 220 0
55.121101 57.444901 1.3066 255 220 0
55.130901 57.457001 1.345 255 220 0
55.138401 57.466202 1.3839 255 220 0
55.1437 57.472698 1.4234 255 220 0
55.146801 57.476601 1.4637001 255 220 0
55.147701 57.477699 1.5048 255 220 0
55.146198 57.4758 1.5469 255 220 0
55.142101 57.470798 1.5901999 255 220 0
55.135101 57.462101 1.6351 255 220 0
55.124401 57.448898 1.6817 255 220 0
55.109001 57.429901 1.7309 255 220 0
55.0867 57.402401 1.7838 255 220 0
55.052299 57.359901 1.8431 255 220 0
54.974098 57.263302 1.9242001 255 220 0
54.836601 57.093601 2.0367999 255 220 0
54.9151 57.190498 2.0455999 255 220 0
54.9627 57.249199 2.0682001 255 220 0
54.999001 57.293999 2.0955999 255 220 0
55.0285 57.330502 2.1257999 255 220 0
55.0532 57.361 2.1582 255 220 0
55.0742 57.386902 2.1921 255 220 0
55.0098 57.2743 0.082000002 255 220 0
55.055698 57.331402 0.12980001 255 220 0
55.0863 57.369598 0.1745 255 220 0
55.109001 57.3979 0.2175 255 220 0
55.126499 57.419701 0.25940001 255 220 0
55.140099 57.4366 0.30050001 255 220 0
55.150501 57.449501 0.34099999 255 220 0
55.158199 57.459202 0.3811 255 220 0
55.163502 57.465801 0.42089999 255 220 0
55.166698 57.4697 0.4605 255 220 0
55.167702 57.471001 0.5 255 220 0
55.166698 57.4697 0.5395 255 220 0
55.163502 57.465801 0.57910001 255 220 0
55.158199 57.459202 0.6189 255 220 0
55.150501 57.449501 0.65899998 255 220 0
55.140099 57.4366 0.69950002 255 220 0
55.126499 57.419701 0.74059999 255 220 0
55.109001 57.3979 0.78250003 255 220 0
55.0863 57.369598 0.82550001 255 220 0
55.055698 57.331402 0.87019998 255 220 0
55.0098 57.2743 0.91799998 255 220 0
54.848999 57.073898 1.0290999 255 220 0
54.966202 57.219898 1.0522 255 220 0
55.014099 57.279598 1.0857 255 220 0
55.048401 57.3223 1.1208 255 220 0
55.0751 57.355701 1.1567 255 220 0
55.096802 57.382702 1.1932 255 220 0
55.1147 57.404999 1.2301 255 220 0
55.129398 57.423302 1.2675 255 220 0
55.141399 57.438301 1.3053 255 220 0
55.151001 57.450298 1.3436 255 220 0
55.158401 57.4594 1.3825001 255 220 0
55.163601 57.466 1.4219 255 220 0
55.166801 57.469799 1.4621 255 220 0
55.167702 57.471001 1.5032001 255 220 0
55.166401 57.469299 1.5452 255 220 0
55.162498 57.4645 1.5884 255 220 0
55.1558 57.4561 1.633 255 220 0
55.145599 57.443401 1.6794 255 220 0
55.130901 57.425201 1.7282 255 220 0
55.109901 57.399101 1.7805001 255 220 0
55.0783 57.3596 1.8385 255 220 0
55.016998 57.283199 1.9117 255 220 0
54.872398 57.1031 2.0276999 255 220 0
54.941299 57.1889 2.0408001 255 220 0
54.986401 57.245098 2.0644 255 220 0
55.021301 57.288601 2.0922999 255 220 0
55.049999 57.324402 2.1228001 255 220 0
55.0742 57.3545 2.1552999 255 220 0
55.094799 57.380199 2.1894 255 220 0
54.928001 57.137901 0.024800001 255 220 0
55.0364 57.2742 0.083499998 255 220 0
55.078899 57.327702 0.13070001 255 220 0
55.108101 57.364399 0.1752 255 220 0
55.130001 57.391899 0.21799999 255 220 0
55.1469 57.4132 0.25979999 255 220 0
55.160099 57.429798 0.3008 255 220 0
55.1703 57.442501 0.34130001 255 220 0
55.177799 57.452 0.3813 255 220 0
55.182999 57.4585 0.421 255 220 0
55.1861 57.462399 0.46059999 255 220 0
55.187099 57.463699 0.5 255 220 0
55.1861 57.462399 0.53939998 255 220 0
55.182999 57.4585 0.579 255 220 0
55.177799 57.452 0.61870003 255 220 0
55.1703 57.442501 0.65869999 255 220 0
55.160099 57.429798 0.69919997 255 220 0
55.1469 57.4132 0.74019998 255 220 0
55.130001 57.391899 0.78200001 255 220 0
55.108101 57.364399 0.82480001 255 220 0
55.078899 57.327702 0.86930001 255 220 0
55.0364 57.2742 0.91649997 255 220 0
54.928001 57.137901 0.9752 255 220 0
54.909401 57.114601 1.0218 255 220 0
54.992298 57.2188 1.0505 255 220 0
55.0373 57.275398 1.0844001 255 220 0
55.070301 57.316799 1.1196001 255 220 0
55.096199 57.3494 1.1556 255 220 0
55.117401 57.375999 1.1921 255 220 0
55.1348 57.397999 1.229 255 220 0
55.1492 57.4161 1.2663 255 220 0
55.160999 57.430901 1.3041 255 220 0
55.170502 57.442799 1.3424 255 220 0
55.177799 57.452 1.3812 255 220 0
55.182999 57.4585 1.4207 255 220 0
55.1861 57.462399 1.4608001 255 220 0
55.187099 57.463699 1.5017999 255 220 0
55.185902 57.462101 1.5437 255 220 0
55.182201 57.4575 1.5867 255 220 0
55.175701 57.449402 1.6312 255 220 0
55.165901 57.437 1.6774 255 220 0
55.151901 57.419399 1.7259001 255 220 0
55.131901 57.394299 1.7776999 255 220 0
55.102299 57.356998 1.8348 255 220 0
55.049198 57.290298 1.9040999 255 220 0
54.902699 57.106098 2.0211999 255 220 0
54.965698 57.185299 2.0369 255 220 0
55.008801 57.239601 2.0611999 255 220 0
55.042801 57.2822 2.0895 255 220 0
55.070801 57.317402 2.1201999 255 220 0
55.094398 57.347198 2.1528001 255 220 0
55.1147 57.372601 2.187 255 220 0
54.981499 57.171001 0.0305 255 220 0
55.060799 57.271599 0.084600002 255 220 0
55.100899 57.322498 0.13150001 255 220 0
55.128899 57.358101 0.17569999 255 220 0
55.150101 57.384998 0.2185 255 220 0
55.166599 57.4058 0.26010001 255 220 0
55.179501 57.422199 0.30109999 255 220 0
55.1894 57.4347 0.34150001 255 220 0
55.1968 57.444099 0.38139999 255 220 0
55.2019 57.4506 0.42109999 255 220 0
55.204899 57.454399 0.46059999 255 220 0
55.205898 57.4557 0.5 255 220 0
55.204899 57.454399 0.53939998 255 220 0
55.2019 57.4506 0.57889998 255 220 0
55.1968 57.444099 0.61860001 255 220 0
55.1894 57.4347 0.65850002 255 220 0
55.179501 57.422199 0.69889998 255 220 0
55.166599 57.4058 0.73989999 255 220 0
55.150101 57.384998 0.78149998 255 220 0
55.128899 57.358101 0.82429999 255 220 0
55.100899 57.322498 0.86849999 255 220 0
55.060799 57.271599 0.91540003 255 220 0
54.981499 57.171001 0.96950001 255 220 0
54.944199 57.123798 1.0188 255 220 0
55.016499 57.215401 1.0491 255 220 0
55.059299 57.269798 1.0832 255 220 0
55.091202 57.3102 1.1186 255 220 0
55.116501 57.342201 1.1546 255 220 0
55.1371 57.3685 1.1911 255 220 0
55.154301 57.390202 1.228 255 220 0
55.1684 57.408199 1.2654001 255 220 0
55.18 57.422901 1.3032 255 220 0
55.1894 57.4347 1.3414 255 220 0
55.196602 57.443901 1.3802 255 220 0
55.201698 57.450401 1.4196 255 220 0
55.2048 57.4543 1.4597 255 220 0
55.205898 57.4557 1.5006 255 220 0
55.2047 57.454201 1.5424 255 220 0
55.201199 57.449699 1.5854 255 220 0
55.194901 57.441799 1.6296999 255 220 0
55.185501 57.429798 1.6756999 255 220 0
55.171902 57.412601 1.724 255 220 0
55.152802 57.388302 1.7754 255 220 0
55.124699 57.352699 1.8318 255 220 0
55.076698 57.291801 1.8987 255 220 0
54.9296 57.105202 2.0163 255 220 0
54.988602 57.18 2.0337 255 220 0
55.0303 57.232899 2.0585999 255 220 0
55.063301 57.274799 2.0871 255 220 0
55.090801 57.309601 2.1180999 255 220 0
55.113998 57.339199 2.1508 255 220 0
55.133999 57.364399 2.1849999 255 220 0
55.014 57.178101 0.033 255 220 0
55.083401 57.266899 0.085500002 255 220 0
55.1217 57.315899 0.1321 255 220 0
55.1488 57.3507 0.1762 255 220 0
55.169498 57.377102 0.21879999 255 220 0
55.1856 57.397701 0.2604 255 220 0
55.1982 57.413799 0.30129999 255 220 0
55.207901 57.4263 0.3416 255 220 0
55.215099 57.435501 0.38159999 255 220 0
55.2202 57.441898 0.42120001 255 220 0
55.223099 57.445702 0.46059999 255 220 0
55.224098 57.446999 0.5 255 220 0
55.223099 57.445702 0.53939998 255 220 0
55.2202 57.441898 0.57880002 255 220 0
55.215099 57.435501 0.61839998 255 220 0
55.207901 57.4263 0.6584 255 220 0
55.1982 57.413799 0.69870001 255 220 0
55.1856 57.397701 0.7396 255 220 0
55.169498 57.377102 0.78119999 255 220 0
55.1488 57.3507 0.82380003 255 220 0
55.1217 57.315899 0.86790001 255 220 0
55.083401 57.266899 0.9145 255 220 0
55.014 57.178101 0.96700001 255 220 0
54.9729 57.1255 1.0168 255 220 0
55.039001 57.210098 1.048 255 220 0
55.0802 57.262901 1.0822999 255 220 0
55.111198 57.302502 1.1177 255 220 0
55.135899 57.334202 1.1538 255 220 0
55.1562 57.3601 1.1903 255 220 0
55.1731 57.381699 1.2273 255 220 0
55.187 57.399502 1.2646 255 220 0
55.198502 57.4142 1.3024 255 220 0
55.207699 57.425999 1.3406 255 220 0
55.214802 57.435101 1.3794 255 220 0
55.219898 57.441601 1.4187 255 220 0
55.223 57.445599 1.4588 255 220 0
55.224098 57.446999 1.4996001 255 220 0
55.223 57.445599 1.5414 255 220 0
55.219601 57.4412 1.5842 255 220 0
55.213501 57.433498 1.6285 255 220 0
55.2043 57.4217 1.6744 255 220 0
55.1912 57.4049 1.7224 255 220 0
55.172699 57.381199 1.7735 255 220 0
55.145802 57.346802 1.8293 255 220 0
55.101299 57.289799 1.8947001 255 220 0
54.954102 57.101398 2.0125999 255 220 0
55.0103 57.173302 2.0311 255 220 0
55.0508 57.225201 2.0565 255 220 0
55.083099 57.266602 2.0852001 255 220 0
55.1101 57.301102 2.1163001 255 220 0
55.132999 57.330399 2.1491001 255 220 0
55.152599 57.355499 2.1833 255 220 0
55.040798 57.178101 0.034600001 255 220 0
55.104599 57.260502 0.086199999 255 220 0
55.141499 57.308102 0.13249999 255 220 0
55.1679 57.3423 0.17649999 255 220 0
55.188099 57.368401 0.2191 255 220 0
55.203899 57.388802 0.2606 255 220 0
55.216301 57.404701 0.30149999 255 220 0
55.2258 57.417099 0.3418 255 220 0
55.233002 57.4263 0.38159999 255 220 0
55.2379 57.432701 0.42120001 255 220 0
55.240799 57.436401 0.46070001 255 220 0
55.241798 57.437698 0.5 255 220 0
55.240799 57.436401 0.53930002 255 220 0
55.2379 57.432701 0.57880002 255 220 0
55.233002 57.4263 0.61839998 255 220 0
55.2258 57.417099 0.65820003 255 220 0
55.216301 57.404701 0.69849998 255 220 0
55.203899 57.388802 0.73940003 255 220 0
55.188099 57.368401 0.7809 255 220 0
55.1679 57.3423 0.82349998 255 220 0
55.141499 57.308102 0.86750001 255 220 0
55.104599 57.260502 0.9138 255 220 0
55.040798 57.178101 0.96539998 255 220 0
54.9981 57.123001 1.0154001 255 220 0
55.0602 57.203201 1.0470999 255 220 0
55.100101 57.254799 1.0816 255 220 0
55.130402 57.2939 1.1171 255 220 0
55.154701 57.325199 1.1532 255 220 0
55.174702 57.351002 1.1897 255 220 0
55.1912 57.372398 1.2266001 255 220 0
55.205002 57.390202 1.2640001 255 220 0
55.216301 57.4048 1.3017 255 220 0
55.225399 57.416599 1.34 255 220 0
55.232498 57.425701 1.3787 255 220 0
55.237598 57.432301 1.418 255 220 0
55.2407 57.436298 1.4579999 255 220 0
55.241798 57.437698 1.4988 255 220 0
55.2407 57.436401 1.5405 255 220 0
55.2374 57.432098 1.5833 255 220 0
55.231499 57.4244 1.6275001 255 220 0
55.2225 57.412899 1.6733 255 220 0
55.209702 57.396301 1.7212 255 220 0
55.191799 57.3731 1.7721 255 220 0
55.165798 57.3395 1.8275 255 220 0
55.1236 57.285099 1.8917 255 220 0
54.976799 57.095402 2.0097001 255 220 0
55.030899 57.165298 2.0290999 255 220 0
55.0704 57.2164 2.0548 255 220 0
55.1022 57.257401 2.0836999 255 220 0
55.128799 57.291698 2.1149001 255 220 0
55.151402 57.3209 2.1477001 255 220 0
55.170799 57.346001 2.1819999 255 220 0
55.064201 57.173901 0.035599999 255 220 0
55.124401 57.252399 0.0867 255 220 0
55.160301 57.299198 0.1329 255 220 0
55.186199 57.333 0.1768 255 220 0
55.206001 57.358799 0.2193 255 220 0
55.2216 57.379101 0.2608 255 220 0
55.233799 57.395 0.30160001 255 220 0
55.243198 57.4072 0.34189999 255 220 0
55.250198 57.416401 0.38170001 255 220 0
55.2551 57.422798 0.42129999 255 220 0
55.257999 57.426498 0.46070001 255 220 0
55.2589 57.4277 0.5 255 220 0
55.257999 57.426498 0.53930002 255 220 0
55.2551 57.422798 0.57870001 255 220 0
55.250198 57.416401 0.61830002 255 220 0
55.243198 57.4072 0.65810001 255 220 0
55.233799 57.395 0.69840002 255 220 0
55.2216 57.379101 0.7392 255 220 0
55.206001 57.358799 0.78070003 255 220 0
55.186199 57.333 0.82319999 255 220 0
55.160301 57.299198 0.8671 255 220 0
55.124401 57.252399 0.91329998 255 220 0
55.064201 57.173901 0.96439999 255 220 0
55.020699 57.117298 1.0144 255 220 0
55.080101 57.194698 1.0465 255 220 0
55.119099 57.245602 1.0811 255 220 0
55.148899 57.284302 1.1166 255 220 0
55.172798 57.315498 1.1526999 255 220 0
55.192501 57.341202 1.1892 255 220 0
55.2089 57.362499 1.2262 255 220 0
55.2225 57.380199 1.2635 255 220 0
55.2337 57.394798 1.3013 255 220 0
55.242699 57.406601 1.3395 255 220 0
55.249699 57.415699 1.3782001 255 220 0
55.2547 57.422298 1.4175 255 220 0
55.257801 57.4263 1.4575 255 220 0
55.2589 57.4277 1.4982001 255 220 0
55.2579 57.426498 1.5398999 255 220 0
55.2547 57.422199 1.5827 255 220 0
55.248901 57.4147 1.6267999 255 220 0
55.240101 57.403198 1.6725 255 220 0
55.2276 57.386902 1.7203 255 220 0
55.209999 57.363998 1.771 255 220 0
55.1847 57.331001 1.8261 255 220 0
55.144199 57.278301 1.8896 255 220 0
54.997898 57.087502 2.0077 255 220 0
55.050499 57.156101 2.0276999 255 220 0
55.089298 57.206699 2.0536001 255 220 0
55.120602 57.247501 2.0826001 255 220 0
55.146801 57.281601 2.1138 255 220 0
55.169201 57.310799 2.1466999 255 220 0
55.1884 57.3358 2.181 255 220 0
55.084999 57.166599 0.0363 255 220 0
55.143101 57.242901 0.087099999 255 220 0
55.1782 57.2892 0.1331 255 220 0
55.203701 57.322701 0.177 255 220 0
55.223301 57.3484 0.2194 255 220 0
55.238602 57.368599 0.26089999 255 220 0
55.250702 57.384499 0.3017 255 220 0
55.259998 57.396702 0.34189999 255 220 0
55.266998 57.405899 0.3818 255 220 0
55.271801 57.412201 0.42129999 255 220 0
55.274601 57.416 0.46070001 255 220 0
55.2756 57.417198 0.5 255 220 0
55.274601 57.416 0.53930002 255 220 0
55.271801 57.412201 0.57870001 255 220 0
55.266998 57.405899 0.6182 255 220 0
55.259998 57.396702 0.65810001 255 220 0
55.250702 57.384499 0.6983 255 220 0
55.238602 57.368599 0.73909998 255 220 0
55.223301 57.3484 0.78060001 255 220 0
55.203701 57.322701 0.82300001 255 220 0
55.1782 57.2892 0.86690003 255 220 0
55.143101 57.242901 0.91289997 255 220 0
55.084999 57.166599 0.9637 255 220 0
55.041199 57.109001 1.0138 255 220 0
55.0989 57.184898 1.0461 255 220 0
55.137299 57.235298 1.0807 255 220 0
55.166599 57.273899 1.1163 255 220 0
55.190201 57.304901 1.1524 255 220 0
55.209702 57.330601 1.1889 255 220 0
55.225899 57.351898 1.2259001 255 220 0
55.239399 57.369598 1.2632 255 220 0
55.2505 57.384201 1.301 255 220 0
55.259499 57.396 1.3391 255 220 0
55.266399 57.405102 1.3779 255 220 0
55.2714 57.411701 1.4171 255 220 0
55.274502 57.415699 1.4571 255 220 0
55.2756 57.417198 1.4978 255 220 0
55.274601 57.416 1.5395 255 220 0
55.2715 57.4118 1.5822001 255 220 0
55.2658 57.404301 1.6263 255 220 0
55.257099 57.392899 1.6719 255 220 0
55.244701 57.376598 1.7197 255 220 0
55.227402 57.353901 1.7703 255 220 0
55.202599 57.321201 1.8252 255 220 0
55.1633 57.269501 1.8882 255 220 0
55.017601 57.0779 2.0064001 255 220 0
55.069099 57.145699 2.0267 255 220 0
55.107399 57.195999 2.0527 255 220 0
55.138302 57.236698 2.0818999 255 220 0
55.164299 57.270802 2.1131001 255 220 0
55.186401 57.2999 2.1459999 255 220 0
55.205502 57.325001 2.1803999 255 220 0
55.103699 57.156502 0.036600001 255 220 0
55.160599 57.231998 0.087200001 255 220 0
55.195301 57.278099 0.1332 255 220 0
55.2206 57.311501 0.177 255 220 0
55.239899 57.337299 0.21950001 255 220 0
55.2551 57.357399 0.26100001 255 220 0
55.267101 57.373299 0.3017 255 220 0
55.276299 57.385601 0.34200001 255 220 0
55.283199 57.394699 0.3818 255 220 0
55.287998 57.4011 0.42129999 255 220 0
55.290798 57.4048 0.46070001 255 220 0
55.291801 57.405998 0.5 255 220 0
55.290798 57.4048 0.53930002 255 220 0
55.287998 57.4011 0.57870001 255 220 0
55.283199 57.394699 0.6182 255 220 0
55.276299 57.385601 0.65799999 255 220 0
55.267101 57.373299 0.6983 255 220 0
55.2551 57.357399 0.73900002 255 220 0
55.239899 57.337299 0.78049999 255 220 0
55.2206 57.311501 0.82300001 255 220 0
55.195301 57.278099 0.86680001 255 220 0
55.160599 57.231998 0.91280001 255 220 0
55.103699 57.156502 0.96340001 255 220 0
55.060001 57.0984 1.0135 255 220 0
55.116699 57.173698 1.0459 255 220 0
55.154598 57.223999 1.0805 255 220 0
55.183601 57.262501 1.1161 255 220 0
55.207001 57.293598 1.1522 255 220 0
55.226398 57.319199 1.1888 255 220 0
55.242401 57.340599 1.2257 255 220 0
55.255798 57.358299 1.2631 255 220 0
55.2668 57.373001 1.3008 255 220 0
55.2757 57.3848 1.339 255 220 0
55.2826 57.393902 1.3777 255 220 0
55.287601 57.400501 1.4170001 255 220 0
55.290699 57.404598 1.4569 255 220 0
55.291801 57.405998 1.4977 255 220 0
55.290798 57.4048 1.5393 255 220 0
55.287701 57.4006 1.582 255 220 0
55.282101 57.393101 1.626 255 220 0
55.273499 57.381802 1.6717 255 220 0
55.2612 57.365501 1.7194 255 220 0
55.244099 57.3428 1.7699 255 220 0
55.219601 57.310299 1.8248 255 220 0
55.180901 57.258999 1.8875 255 220 0
55.035999 57.066601 2.0058 255 220 0
55.086899 57.134102 2.0262001 255 220 0
55.124802 57.184399 2.0523 255 220 0
55.155499 57.225201 2.0815001 255 220 0
55.181198 57.2593 2.1127999 255 220 0
55.203201 57.288502 2.1457 255 220 0
55.222099 57.313599 2.1801 255 220 0
55.120602 57.144001 0.036600001 255 220 0
55.177101 57.2197 0.087200001 255 220 0
55.211601 57.2659 0.1332 255 220 0
55.236698 57.2995 0.177 255 220 0
55.256001 57.325298 0.21950001 255 220 0
55.271099 57.345501 0.26100001 255 220 0
55.283001 57.361401 0.3017 255 220 0
55.292099 57.373699 0.34200001 255 220 0
55.299 57.3829 0.3818 255 220 0
55.303799 57.389301 0.42129999 255 220 0
55.306599 57.393002 0.46070001 255 220 0
55.307499 57.394299 0.5 255 220 0
55.306599 57.393002 0.53930002 255 220 0
55.303799 57.389301 0.57870001 255 220 0
55.299 57.3829 0.6182 255 220 0
55.292099 57.373699 0.65799999 255 220 0
55.283001 57.361401 0.6983 255 220 0
55.271099 57.345501 0.73900002 255 220 0
55.256001 57.325298 0.78049999 255 220 0
55.236698 57.2995 0.82300001 255 220 0
55.211601 57.2659 0.86680001 255 220 0
55.177101 57.2197 0.91280001 255 220 0
55.120602 57.144001 0.96340001 255 220 0
55.077 57.085701 1.0135 255 220 0
55.1334 57.161098 1.0459 255 220 0
55.171101 57.211601 1.0805 255 220 0
55.200001 57.250301 1.1161 255 220 0
55.223202 57.281502 1.1522 255 220 0
55.2425 57.307201 1.1888 255 220 0
55.2584 57.328602 1.2257 255 220 0
55.271801 57.346401 1.2631 255 220 0
55.2827 57.361099 1.3008 255 220 0
55.2915 57.372898 1.339 255 220 0
55.298401 57.382099 1.3777 255 220 0
55.303299 57.388699 1.4170001 255 220 0
55.3064 57.392799 1.4569 255 220 0
55.307499 57.394299 1.4976 255 220 0
55.306599 57.393002 1.5393 255 220 0
55.303398 57.388802 1.582 255 220 0
55.297798 57.381302 1.626 255 220 0
55.289299 57.3699 1.6717 255 220 0
55.2771 57.3536 1.7194 255 220 0
55.260101 57.330898 1.7699 255 220 0
55.235802 57.298199 1.8247 255 220 0
55.1973 57.246799 1.8875 255 220 0
55.0532 57.053699 2.0058 255 220 0
55.103802 57.121498 2.0262001 255 220 0
55.141499 57.172001 2.0523 255 220 0
55.172001 57.212799 2.0815001 255 220 0
55.197498 57.247002 2.1127999 255 220 0
55.219398 57.276299 2.1457 255 220 0
55.238201 57.301498 2.1800001 255 220 0
55.135502 57.128899 0.0363 255 220 0
55.1926 57.205898 0.087099999 255 220 0
55.2271 57.252602 0.1331 255 220 0
55.252102 57.286499 0.177 255 220 0
55.2714 57.3125 0.2194 255 220 0
55.286499 57.332802 0.26089999 255 220 0
55.298302 57.348801 0.3017 255 220 0
55.307499 57.361198 0.34189999 255 220 0
55.314301 57.370499 0.3818 255 220 0
55.319 57.3769 0.42129999 255 220 0
55.3218 57.3806 0.46070001 255 220 0
55.322701 57.381901 0.5 255 220 0
55.3218 57.3806 0.53930002 255 220 0
55.319 57.3769 0.57870001 255 220 0
55.314301 57.370499 0.6182 255 220 0
55.307499 57.361198 0.65810001 255 220 0
55.298302 57.348801 0.6983 255 220 0
55.286499 57.332802 0.73909998 255 220 0
55.2714 57.3125 0.78060001 255 220 0
55.252102 57.286499 0.82300001 255 220 0
55.2271 57.252602 0.86690003 255 220 0
55.1926 57.205898 0.91289997 255 220 0
55.135502 57.128899 0.9637 255 220 0
55.092499 57.070702 1.0138 255 220 0
55.1492 57.147301 1.0461 255 220 0
55.186798 57.1982 1.0807 255 220 0
55.215599 57.237202 1.1163 255 220 0
55.238899 57.268501 1.1524 255 220 0
55.257999 57.294399 1.1889 255 220 0
55.273899 57.315899 1.2259001 255 220 0
55.287201 57.333801 1.2632 255 220 0
55.2981 57.348598 1.3009 255 220 0
55.3069 57.3605 1.3391 255 220 0
55.313702 57.369701 1.3778 255 220 0
55.3186 57.376301 1.4171 255 220 0
55.321602 57.380402 1.4571 255 220 0
55.322701 57.381901 1.4978 255 220 0
55.3218 57.3806 1.5395 255 220 0
55.318699 57.3764 1.5822001 255 220 0
55.313099 57.368801 1.6263 255 220 0
55.3046 57.3573 1.6719 255 220 0
55.2924 57.3409 1.7197 255 220 0
55.275398 57.317902 1.7703 255 220 0
55.251099 57.285 1.8252 255 220 0
55.212399 57.2328 1.8882 255 220 0
55.069199 57.039299 2.0064001 255 220 0
55.1199 57.1077 2.0267 255 220 0
55.157501 57.158501 2.0527 255 220 0
55.187901 57.1996 2.0818999 255 220 0
55.213402 57.2341 2.1131001 255 220 0
55.2351 57.2635 2.1459999 255 220 0
55.253899 57.288799 2.1803999 255 220 0
55.148499 57.111099 0.035700001 255 220 0
55.207001 57.1908 0.0867 255 220 0
55.241798 57.2383 0.1329 255 220 0
55.266899 57.272598 0.1768 255 220 0
55.286201 57.298801 0.2193 255 220 0
55.3013 57.319401 0.2608 255 220 0
55.313099 57.335499 0.30160001 255 220 0
55.3223 57.348 0.34189999 255 220 0
55.329102 57.3573 0.38170001 255 220 0
55.333801 57.3638 0.42129999 255 220 0
55.336601 57.367599 0.46070001 255 220 0
55.337601 57.3689 0.5 255 220 0
55.336601 57.367599 0.53930002 255 220 0
55.333801 57.3638 0.57870001 255 220 0
55.329102 57.3573 0.61830002 255 220 0
55.3223 57.348 0.65810001 255 220 0
55.313099 57.335499 0.69840002 255 220 0
55.3013 57.319401 0.7392 255 220 0
55.286201 57.298801 0.78070003 255 220 0
55.266899 57.272598 0.82319999 255 220 0
55.241798 57.2383 0.8671 255 220 0
55.207001 57.1908 0.91329998 255 220 0
55.148499 57.111099 0.96429998 255 220 0
55.1063 57.053398 1.0144 255 220 0
55.163898 57.132099 1.0465 255 220 0
55.201801 57.183701 1.081 255 220 0
55.230701 57.223099 1.1166 255 220 0
55.253899 57.254799 1.1526999 255 220 0
55.272999 57.280899 1.1892 255 220 0
55.288898 57.302601 1.2262 255 220 0
55.3022 57.320599 1.2635 255 220 0
55.313 57.3354 1.3012 255 220 0
55.3218 57.347401 1.3395 255 220 0
55.328602 57.356602 1.3782001 255 220 0
55.3335 57.3633 1.4175 255 220 0
55.336498 57.367401 1.4575 255 220 0
55.337502 57.3689 1.4982001 255 220 0
55.336601 57.367599 1.5398999 255 220 0
55.3335 57.3633 1.5826 255 220 0
55.327801 57.355598 1.6267 255 220 0
55.319302 57.344002 1.6724 255 220 0
55.307098 57.3274 1.7203 255 220 0
55.290001 57.3041 1.771 255 220 0
55.265499 57.270599 1.8261 255 220 0
55.2262 57.216999 1.8895 255 220 0
55.084099 57.023102 2.0077 255 220 0
55.135101 57.0928 2.0276 255 220 0
55.172798 57.144199 2.0534999 255 220 0
55.203201 57.1856 2.0826001 255 220 0
55.228699 57.220402 2.1138 255 220 0
55.250401 57.25 2.1466999 255 220 0
55.269001 57.275398 2.181 255 220 0
55.159199 57.089901 0.034600001 255 220 0
55.220299 57.174 0.086300001 255 220 0
55.255699 57.222698 0.13249999 255 220 0
55.280998 57.257702 0.17649999 255 220 0
55.3004 57.284302 0.2191 255 220 0
55.315601 57.305199 0.26069999 255 220 0
55.3274 57.321499 0.30149999 255 220 0
55.336601 57.334099 0.3418 255 220 0
55.343498 57.343601 0.38170001 255 220 0
55.348202 57.350101 0.42129999 255 220 0
55.351002 57.353901 0.46070001 255 220 0
55.351898 57.355202 0.5 255 220 0
55.351002 57.353901 0.53930002 255 220 0
55.348202 57.350101 0.57870001 255 220 0
55.343498 57.343601 0.61830002 255 220 0
55.336601 57.334099 0.65820003 255 220 0
55.3274 57.321499 0.69849998 255 220 0
55.315601 57.305199 0.73930001 255 220 0
55.3004 57.284302 0.7809 255 220 0
55.280998 57.257702 0.82349998 255 220 0
55.255699 57.222698 0.86750001 255 220 0
55.220299 57.174 0.91369998 255 220 0
55.159199 57.089901 0.96539998 255 220 0
55.118198 57.033501 1.0153 255 220 0
55.177601 57.115398 1.0470999 255 220 0
55.216 57.168098 1.0816 255 220 0
55.244999 57.208099 1.1171 255 220 0
55.268299 57.2402 1.1531 255 220 0
55.287498 57.266499 1.1897 255 220 0
55.303398 57.288502 1.2266001 255 220 0
55.316601 57.306599 1.2640001 255 220 0
55.327499 57.321602 1.3017 255 220 0
55.336201 57.333599 1.3399 255 220 0
55.342999 57.342999 1.3787 255 220 0
55.3479 57.349701 1.418 255 220 0
55.350899 57.353699 1.4579999 255 220 0
55.351898 57.355202 1.4988 255 220 0
55.350899 57.353901 1.5405 255 220 0
55.347698 57.349499 1.5833 255 220 0
55.342098 57.341702 1.6274 255 220 0
55.3335 57.3298 1.6732 255 220 0
55.321201 57.312901 1.7212 255 220 0
55.303902 57.2892 1.772 255 220 0
55.278999 57.254902 1.8274 255 220 0
55.238602 57.199299 1.8916 255 220 0
55.097599 57.005199 2.0095999 255 220 0
55.149502 57.076599 2.0290999 255 220 0
55.1875 57.128899 2.0546999 255 220 0
55.217899 57.170799 2.0836999 255 220 0
55.243401 57.205898 2.1148 255 220 0
55.265099 57.235699 2.1477001 255 220 0
55.283798 57.261398 2.1819999 255 220 0
55.166801 57.0644 0.033100002 255 220 0
55.232399 57.155602 0.085600004 255 220 0
55.2687 57.206001 0.1321 255 220 0
55.294498 57.241699 0.1762 255 220 0
55.313999 57.268902 0.21879999 255 220 0
55.3293 57.2901 0.2604 255 220 0
55.341202 57.306702 0.30129999 255 220 0
55.350498 57.3195 0.3416 255 220 0
55.3573 57.329102 0.38159999 255 220 0
55.362099 57.335701 0.42120001 255 220 0
55.364899 57.3396 0.46059999 255 220 0
55.365799 57.3409 0.5 255 220 0
55.364899 57.3396 0.53939998 255 220 0
55.362099 57.335701 0.57880002 255 220 0
55.3573 57.329102 0.61839998 255 220 0
55.350498 57.3195 0.6584 255 220 0
55.341202 57.306702 0.69870001 255 220 0
55.3293 57.2901 0.7396 255 220 0
55.313999 57.268902 0.78119999 255 220 0
55.294498 57.241699 0.82380003 255 220 0
55.2687 57.206001 0.86790001 255 220 0
55.232399 57.155602 0.91439998 255 220 0
55.166801 57.0644 0.96689999 255 220 0
55.1278 57.010201 1.0167 255 220 0
55.1903 57.097099 1.0479 255 220 0
55.229401 57.151299 1.0822999 255 220 0
55.258701 57.192101 1.1177 255 220 0
55.2822 57.224701 1.1538 255 220 0
55.301399 57.2514 1.1903 255 220 0
55.317402 57.273602 1.2272 255 220 0
55.330601 57.292 1.2646 255 220 0
55.341499 57.307098 1.3023 255 220 0
55.350201 57.319199 1.3406 255 220 0
55.356998 57.328602 1.3793 255 220 0
55.361801 57.3353 1.4187 255 220 0
55.364799 57.339401 1.4586999 255 220 0
55.365799 57.3409 1.4996001 255 220 0
55.364799 57.339401 1.5413001 255 220 0
55.361599 57.334999 1.5842 255 220 0
55.355801 57.327 1.6284 255 220 0
55.347099 57.314899 1.6743 255 220 0
55.334599 57.2976 1.7224 255 220 0
55.317101 57.273201 1.7735 255 220 0
55.291599 57.237801 1.8293 255 220 0
55.2495 57.179199 1.8945 255 220 0
55.109798 56.985199 2.0123999 255 220 0
55.162998 57.059101 2.0309999 255 220 0
55.201401 57.112499 2.0564001 255 220 0
55.232101 57.155102 2.0852001 255 220 0
55.257599 57.190601 2.1162 255 220 0
55.2794 57.220798 2.1489999 255 220 0
55.298 57.2467 2.1833 255 220 0
55.169399 57.0317 0.0306 255 220 0
55.243301 57.1353 0.084700003 255 220 0
55.280899 57.187901 0.13150001 255 220 0
55.307098 57.224701 0.17569999 255 220 0
55.327 57.252602 0.2185 255 220 0
55.3424 57.2742 0.26019999 255 220 0
55.3545 57.2911 0.30109999 255 220 0
55.3638 57.304199 0.34150001 255 220 0
55.370701 57.3139 0.38139999 255 220 0
55.3755 57.320599 0.42109999 255 220 0
55.3783 57.324501 0.46059999 255 220 0
55.379299 57.325802 0.5 255 220 0
55.3783 57.324501 0.53939998 255 220 0
55.3755 57.320599 0.57889998 255 220 0
55.370701 57.3139 0.61860001 255 220 0
55.3638 57.304199 0.65850002 255 220 0
55.3545 57.2911 0.69889998 255 220 0
55.3424 57.2742 0.73979998 255 220 0
55.327 57.252602 0.78149998 255 220 0
55.307098 57.224701 0.82429999 255 220 0
55.280899 57.187901 0.86849999 255 220 0
55.243301 57.1353 0.91530001 255 220 0
55.169399 57.0317 0.96939999 255 220 0
55.1343 56.982399 1.0187 255 220 0
55.201698 57.077 1.049 255 220 0
55.241901 57.133202 1.0832 255 220 0
55.271702 57.175098 1.1185 255 220 0
55.295399 57.208302 1.1546 255 220 0
55.3148 57.2355 1.1911 255 220 0
55.330898 57.257999 1.228 255 220 0
55.344101 57.2766 1.2653 255 220 0
55.355 57.291901 1.3031 255 220 0
55.3638 57.3041 1.3414 255 220 0
55.370499 57.313599 1.3802 255 220 0
55.375401 57.3204 1.4196 255 220 0
55.3783 57.324501 1.4596 255 220 0
55.379299 57.325802 1.5005 255 220 0
55.378201 57.324299 1.5424 255 220 0
55.374901 57.319698 1.5853 255 220 0
55.368999 57.311501 1.6296 255 220 0
55.360199 57.299099 1.6756999 255 220 0
55.3475 57.2813 1.7239 255 220 0
55.329498 57.2561 1.7753 255 220 0
55.3032 57.2192 1.8316 255 220 0
55.2584 57.156399 1.8985 255 220 0
55.1203 56.962799 2.0160999 255 220 0
55.175598 57.040298 2.0336001 255 220 0
55.2146 57.095001 2.0585001 255 220 0
55.245602 57.138401 2.0871 255 220 0
55.271301 57.1745 2.118 255 220 0
55.293098 57.205101 2.1507001 255 220 0
55.311798 57.2313 2.1849 255 220 0
55.1553 56.974899 0.0254 255 220 0
55.252701 57.112701 0.083499998 255 220 0
55.292099 57.168301 0.13070001 255 220 0
55.319099 57.2066 0.1752 255 220 0
55.339298 57.235199 0.21799999 255 220 0
55.355 57.257401 0.25979999 255 220 0
55.367199 57.2747 0.3008 255 220 0
55.376598 57.287998 0.34130001 255 220 0
55.383598 57.297901 0.3813 255 220 0
55.3885 57.304699 0.421 255 220 0
55.3913 57.3088 0.46059999 255 220 0
55.3922 57.310101 0.5 255 220 0
55.3913 57.3088 0.53939998 255 220 0
55.3885 57.304699 0.579 255 220 0
55.383598 57.297901 0.61870003 255 220 0
55.376598 57.287998 0.65869999 255 220 0
55.367199 57.2747 0.69919997 255 220 0
55.355 57.257401 0.74019998 255 220 0
55.339298 57.235199 0.78200001 255 220 0
55.319099 57.2066 0.82480001 255 220 0
55.292099 57.168301 0.86930001 255 220 0
55.252701 57.112701 0.91649997 255 220 0
55.1553 56.974899 0.97460002 255 220 0
55.135502 56.9468 1.0217 255 220 0
55.2118 57.054798 1.0504 255 220 0
55.253502 57.1138 1.0843 255 220 0
55.284 57.156898 1.1196001 255 220 0
55.307999 57.190899 1.1555001 255 220 0
55.327599 57.2187 1.192 255 220 0
55.3438 57.241501 1.2289 255 220 0
55.357101 57.260399 1.2663 255 220 0
55.368099 57.275902 1.3041 255 220 0
55.3769 57.2883 1.3424 255 220 0
55.383598 57.297901 1.3812 255 220 0
55.388401 57.304699 1.4206001 255 220 0
55.3913 57.3088 1.4608001 255 220 0
55.3922 57.310101 1.5017 255 220 0
55.391102 57.308498 1.5436 255 220 0
55.387699 57.3036 1.5867 255 220 0
55.381699 57.2952 1.6311001 255 220 0
55.372601 57.282299 1.6773 255 220 0
55.3596 57.263901 1.7258 255 220 0
55.341202 57.237801 1.7776 255 220 0
55.313702 57.199001 1.8346 255 220 0
55.264702 57.1297 1.9038 255 220 0
55.128799 56.937302 2.0209999 255 220 0
55.187099 57.019798 2.0367 255 220 0
55.227001 57.076302 2.0611 255 220 0
55.258499 57.1208 2.0894001 255 220 0
55.284401 57.157501 2.1201 255 220 0
55.3064 57.188599 2.1526999 255 220 0
55.3251 57.215099 2.1868999 255 220 0
55.2603 57.087299 0.082099997 255 220 0
55.3022 57.147099 0.12980001 255 220 0
55.3302 57.187099 0.1745 255 220 0
55.351002 57.216801 0.2175 255 220 0
55.367001 57.2397 0.25940001 255 220 0
55.379398 57.257401 0.30050001 255 220 0
55.388901 57.271 0.34099999 255 220 0
55.396 57.281101 0.3811 255 220 0
55.400902 57.288101 0.42089999 255 220 0
55.403801 57.292198 0.4605 255 220 0
55.404701 57.293598 0.5 255 220 0
55.403801 57.292198 0.5395 255 220 0
55.400902 57.288101 0.57910001 255 220 0
55.396 57.281101 0.6189 255 220 0
55.388901 57.271 0.65899998 255 220 0
55.379398 57.257401 0.69950002 255 220 0
55.367001 57.2397 0.74059999 255 220 0
55.351002 57.216801 0.78250003 255 220 0
55.3302 57.187099 0.82550001 255 220 0
55.3022 57.147099 0.87019998 255 220 0
55.2603 57.087299 0.91790003 255 220 0
55.117401 56.883202 1.0282 255 220 0
55.220299 57.030201 1.0522 255 220 0
55.264099 57.092701 1.0857 255 220 0
55.295399 57.137501 1.1208 255 220 0
55.32 57.172501 1.1567 255 220 0
55.339802 57.200901 1.1931 255 220 0
55.356201 57.224201 1.2301 255 220 0
55.369598 57.243401 1.2674 255 220 0
55.380699 57.259201 1.3052 255 220 0
55.3895 57.271702 1.3435 255 220 0
55.396198 57.281399 1.3824 255 220 0
55.401001 57.2882 1.4219 255 220 0
55.4039 57.292301 1.4621 255 220 0
55.404701 57.293598 1.5031 255 220 0
55.4035 57.291801 1.5451 255 220 0
55.400002 57.2868 1.5883 255 220 0
55.393799 57.278 1.6329 255 220 0
55.384499 57.264599 1.6793 255 220 0
55.371101 57.245499 1.7280999 255 220 0
55.351898 57.218102 1.7804 255 220 0
55.322899 57.176701 1.8383 255 220 0
55.2672 57.097099 1.9112999 255 220 0
55.134499 56.9077 2.0274 255 220 0
55.197399 56.997398 2.0406001 255 220 0
55.238602 57.0564 2.0643001 255 220 0
55.270699 57.1021 2.0922 255 220 0
55.296902 57.139599 2.1227 255 220 0
55.319099 57.1712 2.1552 255 220 0
55.337898 57.198101 2.1893001 255 220 0
55.2654 57.058102 0.080300003 255 220 0
55.3111 57.124001 0.1287 255 220 0
55.340401 57.166302 0.1737 255 220 0
55.3619 57.197201 0.21690001 255 220 0
55.3783 57.220798 0.259 255 220 0
55.390999 57.239101 0.30019999 255 220 0
55.4007 57.253101 0.34079999 255 220 0
55.407902 57.2635 0.3809 255 220 0
55.412899 57.270699 0.4208 255 220 0
55.415798 57.274899 0.46039999 255 220 0
55.416801 57.276299 0.5 255 220 0
55.415798 57.274899 0.53960001 255 220 0
55.412899 57.270699 0.57920003 255 220 0
55.407902 57.2635 0.61909997 255 220 0
55.4007 57.253101 0.65920001 255 220 0
55.390999 57.239101 0.69980001 255 220 0
55.3783 57.220798 0.741 255 220 0
55.3619 57.197201 0.78310001 255 220 0
55.340401 57.166302 0.82630002 255 220 0
55.3111 57.124001 0.87129998 255 220 0
55.2654 57.058102 0.91970003 255 220 0
55.2267 57.0023 1.0544 255 220 0
55.273499 57.069801 1.0872999 255 220 0
55.306099 57.116699 1.1222 255 220 0
55.3312 57.152901 1.158 255 220 0
55.351398 57.182098 1.1945 255 220 0
55.368 57.206001 1.2314 255 220 0
55.381599 57.225601 1.2687 255 220 0
55.3927 57.2416 1.3066 255 220 0
55.4016 57.254398 1.3449 255 220 0
55.408298 57.264099 1.3838 255 220 0
55.413101 57.271 1.4234 255 220 0
55.415901 57.275101 1.4636 255 220 0
55.416698 57.276199 1.5046999 255 220 0
55.415401 57.2743 1.5469 255 220 0
55.411701 57.269001 1.5901999 255 220 0
55.4053 57.2598 1.635 255 220 0
55.395699 57.245899 1.6816 255 220 0
55.381802 57.2258 1.7308 255 220 0
55.361698 57.1968 1.7837 255 220 0
55.330601 57.1521 1.8429 255 220 0
55.2607 57.051399 1.9234999 255 220 0
55.1357 56.871101 2.0364001 255 220 0
55.206299 56.9729 2.0453999 255 220 0
55.249298 57.034901 2.0680001 255 220 0
55.282101 57.082199 2.0954001 255 220 0
55.3088 57.120602 2.1257 255 220 0
55.3312 57.152901 2.158 255 220 0
55.350201 57.180302 2.1919999 255 220 0
55.266899 57.0233 0.077799998 255 220 0
55.3186 57.098499 0.1274 255 220 0
55.349701 57.1437 0.1728 255 220 0
55.372002 57.1763 0.21619999 255 220 0
55.388901 57.200901 0.25839999 255 220 0
55.402 57.219799 0.29969999 255 220 0
55.4119 57.234299 0.34040001 255 220 0
55.419201 57.244999 0.38069999 255 220 0
55.424301 57.2523 0.4206 255 220 0
55.427299 57.256599 0.46039999 255 220 0
55.428299 57.258099 0.5 255 220 0
55.427299 57.256599 0.53960001 255 220 0
55.424301 57.2523 0.5794 255 220 0
55.419201 57.244999 0.61930001 255 220 0
55.4119 57.234299 0.65960002 255 220 0
55.402 57.219799 0.70029998 255 220 0
55.388901 57.200901 0.74159998 255 220 0
55.372002 57.1763 0.78380001 255 220 0
55.349701 57.1437 0.8272 255 220 0
55.3186 57.098499 0.87260002 255 220 0
55.266899 57.0233 0.92220002 255 220 0
55.230202 56.969898 1.0572 255 220 0
55.281601 57.044701 1.0893 255 220 0
55.315701 57.094299 1.1239001 255 220 0
55.341599 57.132 1.1596 255 220 0
55.362301 57.162102 1.196 255 220 0
55.3792 57.186699 1.2329 255 220 0
55.393002 57.206799 1.2702 255 220 0
55.404202 57.223099 1.3081 255 220 0
55.413101 57.236099 1.3465 255 220 0
55.419998 57.245998 1.3854001 255 220 0
55.424702 57.252899 1.425 255 220 0
55.427502 57.257 1.4654 255 220 0
55.4282 57.257999 1.5066 255 220 0
55.4268 57.255901 1.5489 255 220 0
55.422901 57.250301 1.5923001 255 220 0
55.416199 57.240601 1.6374 255 220 0
55.4062 57.225899 1.6842999 255 220 0
55.391602 57.2047 1.734 255 220 0
55.3703 57.173698 1.7876 255 220 0
55.3363 57.124298 1.8485 255 220 0
55.124901 56.8167 2.0518999 255 220 0
55.213501 56.945599 2.0511999 255 220 0
55.2589 57.0117 2.0724001 255 220 0
55.292801 57.060902 2.0992999 255 220 0
55.32 57.100601 2.1292 255 220 0
55.342701 57.133598 2.1612999 255 220 0
55.3619 57.161598 2.1952 255 220 0
55.2612 56.977501 0.074299999 255 220 0
55.3242 57.07 0.1258 255 220 0
55.3578 57.119301 0.1717 255 220 0
