ply
format ascii 1.0
comment PCL generated
element vertex 1572
property float x
property float y
property float z
property uchar red
property uchar green
property uchar blue
element camera 0
property float view_px
property float view_py
property float view_pz
property float x_axisx
property float x_axisy
property float x_axisz
property float y_axisx
property float y_axisy
property float y_axisz
property float z_axisx
property float z_axisy
property float z_axisz
property float focal
property float scalex
property float scaley
property float centerx
property float centery
property int viewportx
property int viewporty
property float k1
property float k2
end_header
46 40.691799 1.3161 0 40 255
46 40.691799 1.375 0 40 255
46 40.691799 1.4341 0 40 255
46 40.691799 1.4933 0 40 255
46 40.691799 1.5527 0 40 255
46 40.691799 1.6720001 0 40 255
46 40.691799 1.7319 0 40 255
46 40.691799 1.7920001 0 40 255
46 40.691799 1.8523 0 40 255
46 40.691799 1.9128 0 40 255
46 40.691799 1.9735 0 40 255
46 40.691799 2.0344999 0 40 255
46 40.691799 2.0957 0 40 255
46 40.691799 2.1572001 0 40 255
46 40.691799 2.2189 0 40 255
46 40.691799 2.2809 0 40 255
46 40.691799 2.3433001 0 40 255
46 40.691799 2.4059 0 40 255
46 40.691799 2.4688001 0 40 255
46 40.691799 2.5321 0 40 255
46 40.691799 2.5957 0 40 255
46 40.691799 2.6596 0 40 255
46 40.691799 2.7239001 0 40 255
46 40.691799 2.7886 0 40 255
46 40.691799 2.8536999 0 40 255
46 40.691799 2.9191999 0 40 255
46 40.643299 0.032499999 0 40 255
46 40.643299 0.0911 0 40 255
46 40.643299 0.1496 0 40 255
46 40.643299 0.20810001 0 40 255
46 40.643299 0.2665 0 40 255
46 40.643299 0.3249 0 40 255
46 40.643299 0.38330001 0 40 255
46 40.643299 0.44170001 0 40 255
46 40.643299 0.5 0 40 255
46 40.643299 0.55830002 0 40 255
46 40.643299 0.61669999 0 40 255
46 40.643299 0.67510003 0 40 255
46 40.643299 0.7335 0 40 255
46 40.643299 0.79189998 0 40 255
46 40.643299 0.85039997 0 40 255
46 40.643299 0.90890002 0 40 255
46 40.643299 0.96749997 0 40 255
46 40.643299 1.0261 0 40 255
46 40.643299 1.0849 0 40 255
46 40.643299 1.1437 0 40 255
46 40.643299 1.2027 0 40 255
46 40.643299 1.2617 0 40 255
46 40.643299 1.3209 0 40 255
46 40.643299 1.3801 0 40 255
46 40.643299 1.4396 0 40 255
46 40.643299 1.4991 0 40 255
46 40.643299 1.5589 0 40 255
46 40.643299 1.6788 0 40 255
46 40.643299 1.7391 0 40 255
46 40.643299 1.7995 0 40 255
46 40.643299 1.8601 0 40 255
46 40.643299 1.921 0 40 255
46 40.643299 1.9821 0 40 255
46 40.643299 2.0434 0 40 255
46 40.643299 2.105 0 40 255
46 40.643299 2.1668 0 40 255
46 40.643299 2.2289 0 40 255
46 40.643299 2.2913001 0 40 255
46 40.643299 2.3540001 0 40 255
46 40.643299 2.4170001 0 40 255
46 40.643299 2.4802999 0 40 255
46 40.643299 2.5439 0 40 255
46 40.643299 2.6078999 0 40 255
46 40.643299 2.6722 0 40 255
46 40.643299 2.7369001 0 40 255
46 40.643299 2.8018999 0 40 255
46 40.643299 2.8673999 0 40 255
46 40.643299 2.9333 0 40 255
46 40.594299 0.0298 0 40 255
46 40.594299 0.088699996 0 40 255
46 40.594299 0.1476 0 40 255
46 40.594299 0.20640001 0 40 255
46 40.594299 0.26519999 0 40 255
46 40.594299 0.32390001 0 40 255
46 40.594299 0.38260001 0 40 255
46 40.594299 0.4413 0 40 255
46 40.594299 0.5 0 40 255
46 40.594299 0.55870003 0 40 255
46 40.594299 0.61739999 0 40 255
46 40.594299 0.67610002 0 40 255
46 40.594299 0.73479998 0 40 255
46 40.594299 0.79360002 0 40 255
46 40.594299 0.8524 0 40 255
46 40.594299 0.9113 0 40 255
46 40.594299 0.9702 0 40 255
46 40.594299 1.0292 0 40 255
46 40.594299 1.0883 0 40 255
46 40.594299 1.1475 0 40 255
46 40.594299 1.2068 0 40 255
46 40.594299 1.2661999 0 40 255
46 40.594299 1.3257 0 40 255
46 40.594299 1.3853 0 40 255
46 40.594299 1.4450999 0 40 255
46 40.594299 1.505 0 40 255
46 40.594299 1.5651 0 40 255
46 40.594299 1.6857001 0 40 255
46 40.594299 1.7464 0 40 255
46 40.594299 1.8071001 0 40 255
46 40.594299 1.8681999 0 40 255
46 40.594299 1.9294 0 40 255
46 40.594299 1.9908 0 40 255
46 40.594299 2.0525 0 40 255
46 40.594299 2.1145 0 40 255
46 40.594299 2.1767001 0 40 255
46 40.594299 2.2391 0 40 255
46 40.594299 2.3018999 0 40 255
46 40.594299 2.3649001 0 40 255
46 40.594299 2.4282999 0 40 255
46 40.594299 2.4919 0 40 255
46 40.594299 2.5559001 0 40 255
46 40.594299 2.6203001 0 40 255
46 40.594299 2.6849999 0 40 255
46 40.594299 2.7500999 0 40 255
46 40.594299 2.8155 0 40 255
46 40.594299 2.8813 0 40 255
46 40.594299 2.9475999 0 40 255
46 40.544701 0.027000001 0 40 255
46 40.544701 0.086300001 0 40 255
46 40.544701 0.1455 0 40 255
46 40.544701 0.20460001 0 40 255
46 40.544701 0.2638 0 40 255
46 40.544701 0.3229 0 40 255
46 40.544701 0.38190001 0 40 255
46 40.544701 0.44100001 0 40 255
46 40.544701 0.5 0 40 255
46 40.544701 0.55900002 0 40 255
46 40.544701 0.61809999 0 40 255
46 40.544701 0.6771 0 40 255
46 40.544701 0.73619998 0 40 255
46 40.544701 0.79540002 0 40 255
46 40.544701 0.8545 0 40 255
46 40.544701 0.91369998 0 40 255
46 40.544701 0.97299999 0 40 255
46 40.544701 1.0324 0 40 255
46 40.544701 1.0918 0 40 255
46 40.544701 1.1514 0 40 255
46 40.544701 1.211 0 40 255
46 40.544701 1.2707 0 40 255
46 40.544701 1.3306 0 40 255
46 40.544701 1.3906 0 40 255
46 40.544701 1.4507 0 40 255
46 40.544701 1.511 0 40 255
46 40.544701 1.5714 0 40 255
46 40.544701 1.6928 0 40 255
46 40.544701 1.7538 0 40 255
46 40.544701 1.8149 0 40 255
46 40.544701 1.8763 0 40 255
46 40.544701 1.9378999 0 40 255
46 40.544701 1.9997 0 40 255
46 40.544701 2.0617001 0 40 255
46 40.544701 2.1241 0 40 255
46 40.544701 2.1866 0 40 255
46 40.544701 2.2495 0 40 255
46 40.544701 2.3125999 0 40 255
46 40.544701 2.3759999 0 40 255
46 40.544701 2.4396999 0 40 255
46 40.544701 2.5037999 0 40 255
46 40.544701 2.5682001 0 40 255
46 40.544701 2.6329 0 40 255
46 40.544701 2.698 0 40 255
46 40.544701 2.7634001 0 40 255
46 40.544701 2.8292999 0 40 255
46 40.544701 2.8954999 0 40 255
46 40.544701 2.9621 0 40 255
46 40.494499 0.0241 0 40 255
46 40.494499 0.083800003 0 40 255
46 40.494499 0.1434 0 40 255
46 40.494499 0.20290001 0 40 255
46 40.494499 0.2624 0 40 255
46 40.494499 0.32179999 0 40 255
46 40.494499 0.38119999 0 40 255
46 40.494499 0.44060001 0 40 255
46 40.494499 0.5 0 40 255
46 40.494499 0.55940002 0 40 255
46 40.494499 0.61879998 0 40 255
46 40.494499 0.67820001 0 40 255
46 40.494499 0.73760003 0 40 255
46 40.494499 0.79710001 0 40 255
46 40.494499 0.85659999 0 40 255
46 40.494499 0.91619998 0 40 255
46 40.494499 0.97589999 0 40 255
46 40.494499 1.0355999 0 40 255
46 40.494499 1.0954 0 40 255
46 40.494499 1.1553 0 40 255
46 40.494499 1.2153 0 40 255
46 40.494499 1.2754 0 40 255
46 40.494499 1.3356 0 40 255
46 40.494499 1.3959 0 40 255
46 40.494499 1.4564 0 40 255
46 40.494499 1.517 0 40 255
46 40.494499 1.5778 0 40 255
46 40.494499 1.6388 0 40 255
46 40.494499 1.6999 0 40 255
46 40.494499 1.7613 0 40 255
46 40.494499 1.8228 0 40 255
46 40.494499 1.8845 0 40 255
46 40.494499 1.9464999 0 40 255
46 40.494499 2.0086999 0 40 255
46 40.494499 2.0711 0 40 255
46 40.494499 2.1338 0 40 255
46 40.494499 2.1967001 0 40 255
46 40.494499 2.2599001 0 40 255
46 40.494499 2.3234999 0 40 255
46 40.494499 2.3873 0 40 255
46 40.494499 2.4514 0 40 255
46 40.494499 2.5158 0 40 255
46 40.494499 2.5806 0 40 255
46 40.494499 2.6457 0 40 255
46 40.494499 2.7111001 0 40 255
46 40.494499 2.777 0 40 255
46 40.494499 2.8432 0 40 255
46 40.494499 2.9099 0 40 255
46 40.494499 2.9769001 0 40 255
46 40.4436 0.021299999 0 40 255
46 40.4436 0.081299998 0 40 255
46 40.4436 0.14120001 0 40 255
46 40.4436 0.20110001 0 40 255
46 40.4436 0.26089999 0 40 255
46 40.4436 0.32069999 0 40 255
46 40.4436 0.38049999 0 40 255
46 40.4436 0.44029999 0 40 255
46 40.4436 0.5 0 40 255
46 40.4436 0.55970001 0 40 255
46 40.4436 0.61949998 0 40 255
46 40.4436 0.67930001 0 40 255
46 40.4436 0.73909998 0 40 255
46 40.4436 0.79890001 0 40 255
46 40.4436 0.85879999 0 40 255
46 40.4436 0.91869998 0 40 255
46 40.4436 0.97869998 0 40 255
46 40.4436 1.0388 0 40 255
46 40.4436 1.099 0 40 255
46 40.4436 1.1592 0 40 255
46 40.4436 1.2196 0 40 255
46 40.4436 1.28 0 40 255
46 40.4436 1.3406 0 40 255
46 40.4436 1.4013 0 40 255
46 40.4436 1.4622 0 40 255
46 40.4436 1.5232 0 40 255
46 40.4436 1.5844001 0 40 255
46 40.4436 1.6457 0 40 255
46 40.4436 1.7072001 0 40 255
46 40.4436 1.7689 0 40 255
46 40.4436 1.8308001 0 40 255
46 40.4436 1.8929 0 40 255
46 40.4436 1.9552 0 40 255
46 40.4436 2.0178001 0 40 255
46 40.4436 2.0806 0 40 255
46 40.4436 2.1436999 0 40 255
46 40.4436 2.207 0 40 255
46 40.4436 2.2706001 0 40 255
46 40.4436 2.3345001 0 40 255
46 40.4436 2.3987 0 40 255
46 40.4436 2.4632001 0 40 255
46 40.4436 2.5280001 0 40 255
46 40.4436 2.5932 0 40 255
46 40.4436 2.6587 0 40 255
46 40.4436 2.7244999 0 40 255
46 40.4436 2.7908001 0 40 255
46 40.4436 2.8573999 0 40 255
46 40.4436 2.9244001 0 40 255
46 40.4436 2.9919 0 40 255
46 40.3922 0.018300001 0 40 255
46 40.3922 0.078699999 0 40 255
46 40.3922 0.139 0 40 255
46 40.3922 0.19930001 0 40 255
46 40.3922 0.2595 0 40 255
46 40.3922 0.31959999 0 40 255
46 40.3922 0.37979999 0 40 255
46 40.3922 0.43990001 0 40 255
46 40.3922 0.5 0 40 255
46 40.3922 0.56010002 0 40 255
46 40.3922 0.62019998 0 40 255
46 40.3922 0.68040001 0 40 255
46 40.3922 0.74049997 0 40 255
46 40.3922 0.80070001 0 40 255
46 40.3922 0.861 0 40 255
46 40.3922 0.92129999 0 40 255
46 40.3922 0.9817 0 40 255
46 40.3922 1.0421 0 40 255
46 40.3922 1.1026 0 40 255
46 40.3922 1.1633 0 40 255
46 40.3922 1.224 0 40 255
46 40.3922 1.2848001 0 40 255
46 40.3922 1.3458 0 40 255
46 40.3922 1.4069 0 40 255
46 40.3922 1.4681 0 40 255
46 40.3922 1.5295 0 40 255
46 40.3922 1.6526999 0 40 255
46 40.3922 1.7146 0 40 255
46 40.3922 1.7767 0 40 255
46 40.3922 1.8389 0 40 255
46 40.3922 1.9014 0 40 255
46 40.3922 1.9641 0 40 255
46 40.3922 2.0271001 0 40 255
46 40.3922 2.0903001 0 40 255
46 40.3922 2.1537001 0 40 255
46 40.3922 2.2174001 0 40 255
46 40.3922 2.2814 0 40 255
46 40.3922 2.3457 0 40 255
46 40.3922 2.4103 0 40 255
46 40.3922 2.4751999 0 40 255
46 40.3922 2.5404 0 40 255
46 40.3922 2.6059 0 40 255
46 40.3922 2.6717999 0 40 255
46 40.3922 2.7381001 0 40 255
46 40.3922 2.8048 0 40 255
46 40.3922 2.8717999 0 40 255
46 40.3922 2.9391999 0 40 255
46 40.3922 3.0071001 0 40 255
46 40.340099 0.0154 0 40 255
46 40.340099 0.076099999 0 40 255
46 40.340099 0.13680001 0 40 255
46 40.340099 0.1974 0 40 255
46 40.340099 0.25799999 0 40 255
46 40.340099 0.31850001 0 40 255
46 40.340099 0.37900001 0 40 255
46 40.340099 0.4395 0 40 255
46 40.340099 0.5 0 40 255
46 40.340099 0.56050003 0 40 255
46 40.340099 0.62099999 0 40 255
46 40.340099 0.68150002 0 40 255
46 40.340099 0.74199998 0 40 255
46 40.340099 0.80260003 0 40 255
46 40.340099 0.86320001 0 40 255
46 40.340099 0.92390001 0 40 255
46 40.340099 0.98460001 0 40 255
46 40.340099 1.0455 0 40 255
46 40.340099 1.1064 0 40 255
46 40.340099 1.1673 0 40 255
46 40.340099 1.2284 0 40 255
46 40.340099 1.2897 0 40 255
46 40.340099 1.351 0 40 255
46 40.340099 1.4124 0 40 255
46 40.340099 1.474 0 40 255
46 40.340099 1.5358 0 40 255
46 40.340099 1.6598001 0 40 255
46 40.340099 1.7221 0 40 255
46 40.340099 1.7845 0 40 255
46 40.340099 1.8472 0 40 255
46 40.340099 1.9101 0 40 255
46 40.340099 1.9732 0 40 255
46 40.340099 2.0365 0 40 255
46 40.340099 2.1001 0 40 255
46 40.340099 2.1638999 0 40 255
46 40.340099 2.2279999 0 40 255
46 40.340099 2.2923999 0 40 255
46 40.340099 2.3571 0 40 255
46 40.340099 2.4219999 0 40 255
46 40.340099 2.4872999 0 40 255
46 40.340099 2.553 0 40 255
46 40.340099 2.6189001 0 40 255
46 40.340099 2.6852 0 40 255
46 40.340099 2.7519 0 40 255
46 40.340099 2.819 0 40 255
46 40.340099 2.8864 0 40 255
46 40.340099 2.9542999 0 40 255
46 40.340099 3.0225999 0 40 255
46 40.287399 0.0123 0 40 255
46 40.287399 0.0735 0 40 255
46 40.287399 0.1345 0 40 255
46 40.287399 0.1955 0 40 255
46 40.287399 0.25650001 0 40 255
46 40.287399 0.31740001 0 40 255
46 40.287399 0.37830001 0 40 255
46 40.287399 0.4391 0 40 255
46 40.287399 0.5 0 40 255
46 40.287399 0.56089997 0 40 255
46 40.287399 0.62169999 0 40 255
46 40.287399 0.68260002 0 40 255
46 40.287399 0.74349999 0 40 255
46 40.287399 0.80449998 0 40 255
46 40.287399 0.86549997 0 40 255
46 40.287399 0.92650002 0 40 255
46 40.287399 0.98769999 0 40 255
46 40.287399 1.0488 0 40 255
46 40.287399 1.1101 0 40 255
46 40.287399 1.1715 0 40 255
46 40.287399 1.233 0 40 255
46 40.287399 1.2946 0 40 255
46 40.287399 1.3563 0 40 255
46 40.287399 1.4181 0 40 255
46 40.287399 1.4801 0 40 255
46 40.287399 1.5422 0 40 255
46 40.287399 1.6670001 0 40 255
46 40.287399 1.7297 0 40 255
46 40.287399 1.7925 0 40 255
46 40.287399 1.8556 0 40 255
46 40.287399 1.9188 0 40 255
46 40.287399 1.9823 0 40 255
46 40.287399 2.0460999 0 40 255
46 40.287399 2.1099999 0 40 255
46 40.287399 2.1743 0 40 255
46 40.287399 2.2388 0 40 255
46 40.287399 2.3034999 0 40 255
46 40.287399 2.3685999 0 40 255
46 40.287399 2.434 0 40 255
46 40.287399 2.4997001 0 40 255
46 40.287399 2.5657001 0 40 255
46 40.287399 2.6321001 0 40 255
46 40.287399 2.6988001 0 40 255
46 40.287399 2.7658999 0 40 255
46 40.287399 2.8334 0 40 255
46 40.287399 2.9013 0 40 255
46 40.287399 2.9696 0 40 255
46 40.287399 3.0383 0 40 255
46 40.234001 0.0093 0 40 255
46 40.234001 0.070799999 0 40 255
46 40.234001 0.1322 0 40 255
46 40.234001 0.1936 0 40 255
46 40.234001 0.25490001 0 40 255
46 40.234001 0.31619999 0 40 255
46 40.234001 0.3775 0 40 255
46 40.234001 0.43880001 0 40 255
46 40.234001 0.5 0 40 255
46 40.234001 0.56120002 0 40 255
46 40.234001 0.6225 0 40 255
46 40.234001 0.68379998 0 40 255
46 40.234001 0.74510002 0 40 255
46 40.234001 0.8064 0 40 255
46 40.234001 0.8678 0 40 255
46 40.234001 0.92919999 0 40 255
46 40.234001 0.99070001 0 40 255
46 40.234001 1.0523 0 40 255
46 40.234001 1.114 0 40 255
46 40.234001 1.1756999 0 40 255
46 40.234001 1.2376 0 40 255
46 40.234001 1.2996 0 40 255
46 40.234001 1.3617001 0 40 255
46 40.234001 1.4239 0 40 255
46 40.234001 1.4863 0 40 255
46 40.234001 1.5488 0 40 255
46 40.234001 1.6743 0 40 255
46 40.234001 1.7374001 0 40 255
46 40.234001 1.8006001 0 40 255
46 40.234001 1.8641 0 40 255
46 40.234001 1.9277 0 40 255
46 40.234001 1.9916 0 40 255
46 40.234001 2.0558 0 40 255
46 40.234001 2.1201 0 40 255
46 40.234001 2.1847999 0 40 255
46 40.234001 2.2497001 0 40 255
46 40.234001 2.3148999 0 40 255
46 40.234001 2.3803999 0 40 255
46 40.234001 2.4461999 0 40 255
46 40.234001 2.5123 0 40 255
46 40.234001 2.5787001 0 40 255
46 40.234001 2.6454999 0 40 255
46 40.234001 2.7126 0 40 255
46 40.234001 2.7802 0 40 255
46 40.234001 2.8480999 0 40 255
46 40.234001 2.9164 0 40 255
46 40.234001 2.9851 0 40 255
46 40.234001 3.0541999 0 40 255
46 40.179901 0.0062000002 0 40 255
46 40.179901 0.068099998 0 40 255
46 40.179901 0.12989999 0 40 255
46 40.179901 0.1917 0 40 255
46 40.179901 0.2534 0 40 255
46 40.179901 0.31510001 0 40 255
46 40.179901 0.37670001 0 40 255
46 40.179901 0.4384 0 40 255
46 40.179901 0.5 0 40 255
46 40.179901 0.56160003 0 40 255
46 40.179901 0.62330002 0 40 255
46 40.179901 0.68489999 0 40 255
46 40.179901 0.74659997 0 40 255
46 40.179901 0.80830002 0 40 255
46 40.179901 0.87010002 0 40 255
46 40.179901 0.93190002 0 40 255
46 40.179901 0.99379998 0 40 255
46 40.179901 1.0558 0 40 255
46 40.179901 1.1179 0 40 255
46 40.179901 1.1799999 0 40 255
46 40.179901 1.2423 0 40 255
46 40.179901 1.3046 0 40 255
46 40.179901 1.3671 0 40 255
46 40.179901 1.4297 0 40 255
46 40.179901 1.4924999 0 40 255
46 40.179901 1.5554 0 40 255
46 40.179901 1.6185 0 40 255
46 40.179901 1.6818 0 40 255
46 40.179901 1.7452 0 40 255
46 40.179901 1.8089 0 40 255
46 40.179901 1.8727 0 40 255
46 40.179901 1.9368 0 40 255
46 40.179901 2.0011001 0 40 255
46 40.179901 2.0655999 0 40 255
46 40.179901 2.1303999 0 40 255
46 40.179901 2.1954999 0 40 255
46 40.179901 2.2607999 0 40 255
46 40.179901 2.3264 0 40 255
46 40.179901 2.3922999 0 40 255
46 40.179901 2.4584999 0 40 255
46 40.179901 2.5250001 0 40 255
46 40.179901 2.5919001 0 40 255
46 40.179901 2.6591001 0 40 255
46 40.179901 2.7267001 0 40 255
46 40.179901 2.7946 0 40 255
46 40.179901 2.8629 0 40 255
46 40.179901 2.9317 0 40 255
46 40.179901 3.0007999 0 40 255
46 40.179901 3.0704 0 40 255
46 40.125198 0.003 0 40 255
46 40.125198 0.065300003 0 40 255
46 40.125198 0.1275 0 40 255
46 40.125198 0.18970001 0 40 255
46 40.125198 0.2518 0 40 255
46 40.125198 0.31389999 0 40 255
46 40.125198 0.3759 0 40 255
46 40.125198 0.43799999 0 40 255
46 40.125198 0.56199998 0 40 255
46 40.125198 0.62410003 0 40 255
46 40.125198 0.68610001 0 40 255
46 40.125198 0.7482 0 40 255
46 40.125198 0.81029999 0 40 255
46 40.125198 0.8725 0 40 255
46 40.125198 0.93470001 0 40 255
46 40.125198 0.99699998 0 40 255
46 40.125198 1.0594 0 40 255
46 40.125198 1.1217999 0 40 255
46 40.125198 1.1844 0 40 255
46 40.125198 1.247 0 40 255
46 40.125198 1.3098 0 40 255
46 40.125198 1.3727 0 40 255
46 40.125198 1.4357001 0 40 255
46 40.125198 1.4989001 0 40 255
46 40.125198 1.5622 0 40 255
46 40.125198 1.6257 0 40 255
46 40.125198 1.6892999 0 40 255
46 40.125198 1.7532001 0 40 255
46 40.125198 1.8173 0 40 255
46 40.125198 1.8815 0 40 255
46 40.125198 1.946 0 40 255
46 40.125198 2.0107 0 40 255
46 40.125198 2.0755999 0 40 255
46 40.125198 2.1408 0 40 255
46 40.125198 2.2063 0 40 255
46 40.125198 2.2720001 0 40 255
46 40.125198 2.3381 0 40 255
46 40.125198 2.4044001 0 40 255
46 40.125198 2.471 0 40 255
46 40.125198 2.5380001 0 40 255
46 40.125198 2.6052999 0 40 255
46 40.125198 2.6729 0 40 255
46 40.125198 2.7409 0 40 255
46 40.125198 2.8092999 0 40 255
46 40.125198 2.8780999 0 40 255
46 40.125198 2.9472001 0 40 255
46 40.125198 3.0167999 0 40 255
46 40.125198 3.0868001 0 40 255
46 40.069698 0.0625 0 40 255
46 40.069698 0.1251 0 40 255
46 40.069698 0.1877 0 40 255
46 40.069698 0.2502 0 40 255
46 40.069698 0.3127 0 40 255
46 40.069698 0.37509999 0 40 255
46 40.069698 0.43759999 0 40 255
46 40.069698 0.5 0 40 255
46 40.069698 0.56239998 0 40 255
46 40.069698 0.62489998 0 40 255
46 40.069698 0.68730003 0 40 255
46 40.069698 0.74980003 0 40 255
46 40.069698 0.81230003 0 40 255
46 40.069698 0.87489998 0 40 255
46 40.069698 0.9375 0 40 255
46 40.069698 1.0002 0 40 255
46 40.069698 1.063 0 40 255
46 40.069698 1.1258 0 40 255
46 40.069698 1.1888 0 40 255
46 40.069698 1.2517999 0 40 255
46 40.069698 1.3150001 0 40 255
46 40.069698 1.3783 0 40 255
46 40.069698 1.4417 0 40 255
46 40.069698 1.5053 0 40 255
46 40.069698 1.569 0 40 255
46 40.069698 1.633 0 40 255
46 40.069698 1.697 0 40 255
46 40.069698 1.7613 0 40 255
46 40.069698 1.8257999 0 40 255
46 40.069698 1.8904001 0 40 255
46 40.069698 1.9553 0 40 255
46 40.069698 2.0204999 0 40 255
46 40.069698 2.0857999 0 40 255
46 40.069698 2.1514001 0 40 255
46 40.069698 2.2172999 0 40 255
46 40.069698 2.2835 0 40 255
46 40.069698 2.3499 0 40 255
46 40.069698 2.4166999 0 40 255
46 40.069698 2.4837999 0 40 255
46 40.069698 2.5511 0 40 255
46 40.069698 2.6189001 0 40 255
46 40.069698 2.6868999 0 40 255
46 40.069698 2.7553999 0 40 255
46 40.069698 2.8241999 0 40 255
46 40.069698 2.8934 0 40 255
46 40.069698 2.9630001 0 40 255
46 40.069698 3.0330999 0 40 255
46 40.069698 3.1034999 0 40 255
46 40.013599 0.059599999 0 40 255
46 40.013599 0.1227 0 40 255
46 40.013599 0.1856 0 40 255
46 40.013599 0.24860001 0 40 255
46 40.013599 0.31150001 0 40 255
46 40.013599 0.3743 0 40 255
46 40.013599 0.43720001 0 40 255
46 40.013599 0.5 0 40 255
46 40.013599 0.56279999 0 40 255
46 40.013599 0.6257 0 40 255
46 40.013599 0.68849999 0 40 255
46 40.013599 0.75139999 0 40 255
46 40.013599 0.81440002 0 40 255
46 40.013599 0.87730002 0 40 255
46 40.013599 0.9404 0 40 255
46 40.013599 1.0035 0 40 255
46 40.013599 1.0666 0 40 255
46 40.013599 1.1299 0 40 255
46 40.013599 1.1933 0 40 255
46 40.013599 1.2567 0 40 255
46 40.013599 1.3203 0 40 255
46 40.013599 1.3839999 0 40 255
46 40.013599 1.4479001 0 40 255
46 40.013599 1.5118999 0 40 255
46 40.013599 1.6403 0 40 255
46 40.013599 1.7048 0 40 255
46 40.013599 1.7695 0 40 255
46 40.013599 1.8344001 0 40 255
46 40.013599 1.8995 0 40 255
46 40.013599 1.9648 0 40 255
46 40.013599 2.0304 0 40 255
46 40.013599 2.0962 0 40 255
46 40.013599 2.1622 0 40 255
46 40.013599 2.2284999 0 40 255
46 40.013599 2.2951 0 40 255
46 40.013599 2.362 0 40 255
46 40.013599 2.4291999 0 40 255
46 40.013599 2.4967 0 40 255
46 40.013599 2.5645001 0 40 255
46 40.013599 2.6327 0 40 255
46 40.013599 2.7012 0 40 255
46 40.013599 2.7701001 0 40 255
46 40.013599 2.8394001 0 40 255
46 40.013599 2.9089999 0 40 255
46 40.013599 2.9791 0 40 255
46 40.013599 3.0495999 0 40 255
46 40.013599 3.1205001 0 40 255
45.0546 41 0.0515 0 40 255
45.0546 41 0.12639999 0 40 255
45.0546 41 0.20110001 0 40 255
45.0546 41 0.27590001 0 40 255
45.0546 41 0.3506 0 40 255
45.0546 41 0.4253 0 40 255
45.0546 41 0.5 0 40 255
45.0546 41 0.5747 0 40 255
45.0546 41 0.6494 0 40 255
45.0546 41 0.72409999 0 40 255
45.0546 41 0.79890001 0 40 255
45.0546 41 0.87360001 0 40 255
45.0546 41 0.94849998 0 40 255
45.0546 41 1.0233999 0 40 255
45.0546 41 1.0984 0 40 255
45.0546 41 1.1734999 0 40 255
45.0546 41 1.2487 0 40 255
45.0546 41 1.324 0 40 255
45.0546 41 1.3995 0 40 255
45.0546 41 1.4751 0 40 255
45.0546 41 1.5508 0 40 255
45.0546 41 1.7027 0 40 255
45.0546 41 1.779 0 40 255
45.0546 41 1.8554 0 40 255
45.0546 41 1.9321001 0 40 255
45.0546 41 2.0090001 0 40 255
45.0546 41 2.0861001 0 40 255
45.0546 41 2.1635001 0 40 255
45.0546 41 2.2411001 0 40 255
45.0546 41 2.319 0 40 255
45.0546 41 2.3973 0 40 255
45.0546 41 2.4758 0 40 255
45.0546 41 2.5546 0 40 255
45.0546 41 2.6336999 0 40 255
45.0546 41 2.7132001 0 40 255
45.0546 41 2.7931001 0 40 255
45.0546 41 2.8733001 0 40 255
45.0546 41 2.954 0 40 255
45.0546 41 3.0350001 0 40 255
45.0546 41 3.1164 0 40 255
45.0546 41 3.1982999 0 40 255
45.0546 41 3.2806001 0 40 255
45.0546 41 3.3635001 0 40 255
45.0546 41 3.4467001 0 40 255
45.0546 41 3.5304999 0 40 255
45.0546 41 3.6148 0 40 255
45.118099 41 0.054200001 0 40 255
45.118099 41 0.1286 0 40 255
45.118099 41 0.20290001 0 40 255
45.118099 41 0.2773 0 40 255
45.118099 41 0.3515 0 40 255
45.118099 41 0.4258 0 40 255
45.118099 41 0.5 0 40 255
45.118099 41 0.57419997 0 40 255
45.118099 41 0.64850003 0 40 255
45.118099 41 0.7227 0 40 255
45.118099 41 0.79710001 0 40 255
45.118099 41 0.8714 0 40 255
45.118099 41 0.94580001 0 40 255
45.118099 41 1.0203 0 40 255
45.118099 41 1.0948 0 40 255
45.118099 41 1.1695 0 40 255
45.118099 41 1.2442 0 40 255
45.118099 41 1.3191 0 40 255
45.118099 41 1.3941 0 40 255
45.118099 41 1.4692 0 40 255
45.118099 41 1.5445 0 40 255
45.118099 41 1.6955 0 40 255
45.118099 41 1.7713 0 40 255
45.118099 41 1.8473001 0 40 255
45.118099 41 1.9234999 0 40 255
45.118099 41 1.9999 0 40 255
45.118099 41 2.0766001 0 40 255
45.118099 41 2.1535001 0 40 255
45.118099 41 2.2307 0 40 255
45.118099 41 2.3081 0 40 255
45.118099 41 2.3857999 0 40 255
45.118099 41 2.4639001 0 40 255
45.118099 41 2.5422001 0 40 255
45.118099 41 2.6208999 0 40 255
45.118099 41 2.6998999 0 40 255
45.118099 41 2.7793 0 40 255
45.118099 41 2.8591001 0 40 255
45.118099 41 2.9391999 0 40 255
45.118099 41 3.0197001 0 40 255
45.118099 41 3.1006999 0 40 255
45.118099 41 3.1821001 0 40 255
45.118099 41 3.2639 0 40 255
45.118099 41 3.3462 0 40 255
45.118099 41 3.4289999 0 40 255
45.118099 41 3.5123 0 40 255
45.118099 41 3.5961001 0 40 255
45.180901 41 0.056899998 0 40 255
45.180901 41 0.13079999 0 40 255
45.180901 41 0.20469999 0 40 255
45.180901 41 0.27860001 0 40 255
45.180901 41 0.3524 0 40 255
45.180901 41 0.4262 0 40 255
45.180901 41 0.5 0 40 255
45.180901 41 0.57380003 0 40 255
45.180901 41 0.6476 0 40 255
45.180901 41 0.72140002 0 40 255
45.180901 41 0.79530001 0 40 255
45.180901 41 0.86919999 0 40 255
45.180901 41 0.94309998 0 40 255
45.180901 41 1.0172 0 40 255
45.180901 41 1.0913 0 40 255
45.180901 41 1.1655 0 40 255
45.180901 41 1.2398 0 40 255
45.180901 41 1.3142 0 40 255
45.180901 41 1.3887 0 40 255
45.180901 41 1.4634 0 40 255
45.180901 41 1.5382 0 40 255
45.180901 41 1.6884 0 40 255
45.180901 41 1.7637 0 40 255
45.180901 41 1.8393 0 40 255
45.180901 41 1.915 0 40 255
45.180901 41 1.9910001 0 40 255
45.180901 41 2.0671999 0 40 255
45.180901 41 2.1436 0 40 255
45.180901 41 2.2203 0 40 255
45.180901 41 2.2973001 0 40 255
45.180901 41 2.3745999 0 40 255
45.180901 41 2.4521999 0 40 255
45.180901 41 2.5301001 0 40 255
45.180901 41 2.6083 0 40 255
45.180901 41 2.6868 0 40 255
45.180901 41 2.7657001 0 40 255
45.180901 41 2.845 0 40 255
45.180901 41 2.9247 0 40 255
45.180901 41 3.0046999 0 40 255
45.180901 41 3.0852001 0 40 255
45.180901 41 3.1661 0 40 255
45.180901 41 3.2474 0 40 255
45.180901 41 3.3292999 0 40 255
45.180901 41 3.4116001 0 40 255
45.180901 41 3.4942999 0 40 255
45.180901 41 3.5776999 0 40 255
45.242901 41 0.059500001 0 40 255
45.242901 41 0.133 0 40 255
45.242901 41 0.20649999 0 40 255
45.242901 41 0.27990001 0 40 255
45.242901 41 0.35330001 0 40 255
45.242901 41 0.42660001 0 40 255
45.242901 41 0.5 0 40 255
45.242901 41 0.57340002 0 40 255
45.242901 41 0.64670002 0 40 255
45.242901 41 0.72009999 0 40 255
45.242901 41 0.79350001 0 40 255
45.242901 41 0.86699998 0 40 255
45.242901 41 0.94050002 0 40 255
45.242901 41 1.0141 0 40 255
45.242901 41 1.0878 0 40 255
45.242901 41 1.1616 0 40 255
45.242901 41 1.2354 0 40 255
45.242901 41 1.3094 0 40 255
45.242901 41 1.3835 0 40 255
45.242901 41 1.4577 0 40 255
45.242901 41 1.5321 0 40 255
45.242901 41 1.6066 0 40 255
45.242901 41 1.6813999 0 40 255
45.242901 41 1.7563 0 40 255
45.242901 41 1.8314 0 40 255
45.242901 41 1.9067 0 40 255
45.242901 41 1.9822 0 40 255
45.242901 41 2.0579 0 40 255
45.242901 41 2.1338999 0 40 255
45.242901 41 2.2102001 0 40 255
45.242901 41 2.2867 0 40 255
45.242901 41 2.3635001 0 40 255
45.242901 41 2.4405999 0 40 255
45.242901 41 2.5181 0 40 255
45.242901 41 2.5957999 0 40 255
45.242901 41 2.6738999 0 40 255
45.242901 41 2.7523 0 40 255
45.242901 41 2.8311 0 40 255
45.242901 41 2.9103 0 40 255
45.242901 41 2.9899001 0 40 255
45.242901 41 3.0699 0 40 255
45.242901 41 3.1503 0 40 255
45.242901 41 3.2312 0 40 255
45.242901 41 3.3125999 0 40 255
45.242901 41 3.3943999 0 40 255
45.242901 41 3.4767001 0 40 255
45.242901 41 3.5595 0 40 255
45.304199 41 0.061999999 0 40 255
45.304199 41 0.13510001 0 40 255
45.304199 41 0.20819999 0 40 255
45.304199 41 0.28119999 0 40 255
45.304199 41 0.35409999 0 40 255
45.304199 41 0.4271 0 40 255
45.304199 41 0.5 0 40 255
45.304199 41 0.5729 0 40 255
45.304199 41 0.64590001 0 40 255
45.304199 41 0.71880001 0 40 255
45.304199 41 0.79180002 0 40 255
45.304199 41 0.86489999 0 40 255
45.304199 41 0.93800002 0 40 255
45.304199 41 1.0111001 0 40 255
45.304199 41 1.0844001 0 40 255
45.304199 41 1.1576999 0 40 255
45.304199 41 1.2311 0 40 255
45.304199 41 1.3047 0 40 255
45.304199 41 1.3783 0 40 255
45.304199 41 1.4521 0 40 255
45.304199 41 1.5261 0 40 255
45.304199 41 1.6002001 0 40 255
45.304199 41 1.6744 0 40 255
45.304199 41 1.7489001 0 40 255
45.304199 41 1.8236001 0 40 255
45.304199 41 1.8983999 0 40 255
45.304199 41 1.9735 0 40 255
45.304199 41 2.0488 0 40 255
45.304199 41 2.1243999 0 40 255
45.304199 41 2.2002001 0 40 255
45.304199 41 2.2763 0 40 255
45.304199 41 2.3526001 0 40 255
45.304199 41 2.4293001 0 40 255
45.304199 41 2.5063 0 40 255
45.304199 41 2.5834999 0 40 255
45.304199 41 2.6612 0 40 255
45.304199 41 2.7392001 0 40 255
45.304199 41 2.8175001 0 40 255
45.304199 41 2.8961999 0 40 255
45.304199 41 2.9753001 0 40 255
45.304199 41 3.0548999 0 40 255
45.304199 41 3.1348 0 40 255
45.304199 41 3.2151999 0 40 255
45.304199 41 3.2960999 0 40 255
45.304199 41 3.3773999 0 40 255
45.304199 41 3.4591999 0 40 255
45.304199 41 3.5416 0 40 255
45.364799 41 0.064599998 0 40 255
45.364799 41 0.1373 0 40 255
45.364799 41 0.20990001 0 40 255
45.364799 41 0.28240001 0 40 255
45.364799 41 0.35499999 0 40 255
45.364799 41 0.42750001 0 40 255
45.364799 41 0.5 0 40 255
45.364799 41 0.57249999 0 40 255
45.364799 41 0.64499998 0 40 255
45.364799 41 0.71759999 0 40 255
45.364799 41 0.79009998 0 40 255
45.364799 41 0.86269999 0 40 255
45.364799 41 0.93540001 0 40 255
45.364799 41 1.0081 0 40 255
45.364799 41 1.081 0 40 255
45.364799 41 1.1539 0 40 255
45.364799 41 1.2269 0 40 255
45.364799 41 1.3 0 40 255
45.364799 41 1.3732001 0 40 255
45.364799 41 1.4466 0 40 255
45.364799 41 1.5201 0 40 255
45.364799 41 1.5937999 0 40 255
45.364799 41 1.6676 0 40 255
45.364799 41 1.7417001 0 40 255
45.364799 41 1.8159 0 40 255
45.364799 41 1.8903 0 40 255
45.364799 41 1.965 0 40 255
45.364799 41 2.0397999 0 40 255
45.364799 41 2.1149001 0 40 255
45.364799 41 2.1903 0 40 255
45.364799 41 2.266 0 40 255
45.364799 41 2.3419001 0 40 255
45.364799 41 2.4181001 0 40 255
45.364799 41 2.4946001 0 40 255
45.364799 41 2.5715001 0 40 255
45.364799 41 2.6486001 0 40 255
45.364799 41 2.7262001 0 40 255
45.364799 41 2.8041 0 40 255
45.364799 41 2.8822999 0 40 255
45.364799 41 2.961 0 40 255
45.364799 41 3.0401001 0 40 255
45.364799 41 3.1196001 0 40 255
45.364799 41 3.1995001 0 40 255
45.364799 41 3.2799001 0 40 255
45.364799 41 3.3606999 0 40 255
45.364799 41 3.4421 0 40 255
45.364799 41 3.5239 0 40 255
45.424702 41 0.067100003 0 40 255
45.424702 41 0.1393 0 40 255
45.424702 41 0.2115 0 40 255
45.424702 41 0.28369999 0 40 255
45.424702 41 0.3558 0 40 255
45.424702 41 0.42789999 0 40 255
45.424702 41 0.5 0 40 255
45.424702 41 0.57209998 0 40 255
45.424702 41 0.64420003 0 40 255
45.424702 41 0.71630001 0 40 255
45.424702 41 0.78850001 0 40 255
45.424702 41 0.86070001 0 40 255
45.424702 41 0.93290001 0 40 255
45.424702 41 1.0052 0 40 255
45.424702 41 1.0776 0 40 255
45.424702 41 1.1501 0 40 255
45.424702 41 1.2227 0 40 255
45.424702 41 1.2954 0 40 255
45.424702 41 1.3681999 0 40 255
45.424702 41 1.4412 0 40 255
45.424702 41 1.5143 0 40 255
45.424702 41 1.5875 0 40 255
45.424702 41 1.6609 0 40 255
45.424702 41 1.7345001 0 40 255
45.424702 41 1.8083 0 40 255
45.424702 41 1.8823 0 40 255
45.424702 41 1.9565001 0 40 255
45.424702 41 2.0309999 0 40 255
45.424702 41 2.1057 0 40 255
45.424702 41 2.1805999 0 40 255
45.424702 41 2.2558 0 40 255
45.424702 41 2.3313 0 40 255
45.424702 41 2.4071 0 40 255
45.424702 41 2.4832001 0 40 255
45.424702 41 2.5596001 0 40 255
45.424702 41 2.6363001 0 40 255
45.424702 41 2.7133999 0 40 255
45.424702 41 2.7908001 0 40 255
45.424702 41 2.8685999 0 40 255
45.424702 41 2.9468 0 40 255
45.424702 41 3.0255001 0 40 255
45.424702 41 3.1045001 0 40 255
45.424702 41 3.184 0 40 255
45.424702 41 3.2639 0 40 255
45.424702 41 3.3443 0 40 255
45.424702 41 3.4252 0 40 255
45.424702 41 3.5065 0 40 255
45.483898 41 0.069600001 0 40 255
45.483898 41 0.14139999 0 40 255
45.483898 41 0.2132 0 40 255
45.483898 41 0.28490001 0 40 255
45.483898 41 0.35659999 0 40 255
45.483898 41 0.42829999 0 40 255
45.483898 41 0.5 0 40 255
45.483898 41 0.57169998 0 40 255
45.483898 41 0.64340001 0 40 255
45.483898 41 0.71509999 0 40 255
45.483898 41 0.78680003 0 40 255
45.483898 41 0.85860002 0 40 255
45.483898 41 0.93040001 0 40 255
45.483898 41 1.0024 0 40 255
45.483898 41 1.0743001 0 40 255
45.483898 41 1.1464 0 40 255
45.483898 41 1.2186 0 40 255
45.483898 41 1.2909 0 40 255
45.483898 41 1.3633 0 40 255
45.483898 41 1.4358 0 40 255
45.483898 41 1.5085 0 40 255
45.483898 41 1.5813 0 40 255
45.483898 41 1.6543 0 40 255
45.483898 41 1.7275 0 40 255
45.483898 41 1.8009 0 40 255
45.483898 41 1.8744 0 40 255
45.483898 41 1.9482 0 40 255
45.483898 41 2.0223 0 40 255
45.483898 41 2.0964999 0 40 255
45.483898 41 2.171 0 40 255
45.483898 41 2.2458 0 40 255
45.483898 41 2.3209 0 40 255
45.483898 41 2.3961999 0 40 255
45.483898 41 2.4719 0 40 255
45.483898 41 2.5478001 0 40 255
45.483898 41 2.6241 0 40 255
45.483898 41 2.7007999 0 40 255
45.483898 41 2.7778001 0 40 255
45.483898 41 2.8550999 0 40 255
45.483898 41 2.9329 0 40 255
45.483898 41 3.0111001 0 40 255
45.483898 41 3.0897 0 40 255
45.483898 41 3.1687 0 40 255
45.483898 41 3.2481999 0 40 255
45.483898 41 3.3281 0 40 255
45.483898 41 3.4085 0 40 255
45.483898 41 3.4893999 0 40 255
45.5424 41 0.071999997 0 40 255
45.5424 41 0.1434 0 40 255
45.5424 41 0.2148 0 40 255
45.5424 41 0.2861 0 40 255
45.5424 41 0.3574 0 40 255
45.5424 41 0.4287 0 40 255
45.5424 41 0.5 0 40 255
45.5424 41 0.57130003 0 40 255
45.5424 41 0.6426 0 40 255
45.5424 41 0.71390003 0 40 255
45.5424 41 0.7852 0 40 255
45.5424 41 0.85659999 0 40 255
45.5424 41 0.92799997 0 40 255
45.5424 41 0.99949998 0 40 255
45.5424 41 1.0711 0 40 255
45.5424 41 1.1428 0 40 255
45.5424 41 1.2145 0 40 255
45.5424 41 1.2864 0 40 255
45.5424 41 1.3584 0 40 255
45.5424 41 1.4305 0 40 255
45.5424 41 1.5028 0 40 255
45.5424 41 1.5752 0 40 255
45.5424 41 1.7206 0 40 255
45.5424 41 1.7934999 0 40 255
45.5424 41 1.8667001 0 40 255
45.5424 41 1.9401 0 40 255
45.5424 41 2.0137 0 40 255
45.5424 41 2.0875001 0 40 255
45.5424 41 2.1616001 0 40 255
45.5424 41 2.2360001 0 40 255
45.5424 41 2.3106 0 40 255
45.5424 41 2.3855 0 40 255
45.5424 41 2.4607 0 40 255
45.5424 41 2.5362999 0 40 255
45.5424 41 2.6120999 0 40 255
45.5424 41 2.6882999 0 40 255
45.5424 41 2.7649 0 40 255
45.5424 41 2.8419001 0 40 255
45.5424 41 2.9191999 0 40 255
45.5424 41 2.9969001 0 40 255
45.5424 41 3.075 0 40 255
45.5424 41 3.1536 0 40 255
45.5424 41 3.2326 0 40 255
45.5424 41 3.3120999 0 40 255
45.5424 41 3.3921001 0 40 255
45.5424 41 3.4725001 0 40 255
45.6003 41 0.0033 0 40 255
45.6003 41 0.0744 0 40 255
45.6003 41 0.1454 0 40 255
45.6003 41 0.2164 0 40 255
45.6003 41 0.28729999 0 40 255
45.6003 41 0.35820001 0 40 255
45.6003 41 0.42910001 0 40 255
45.6003 41 0.5 0 40 255
45.6003 41 0.57090002 0 40 255
45.6003 41 0.64179999 0 40 255
45.6003 41 0.71270001 0 40 255
45.6003 41 0.78359997 0 40 255
45.6003 41 0.85460001 0 40 255
45.6003 41 0.92559999 0 40 255
45.6003 41 0.99669999 0 40 255
45.6003 41 1.0678999 0 40 255
45.6003 41 1.1392 0 40 255
45.6003 41 1.2105 0 40 255
45.6003 41 1.2819999 0 40 255
45.6003 41 1.3536 0 40 255
45.6003 41 1.4253 0 40 255
45.6003 41 1.4972 0 40 255
45.6003 41 1.5692 0 40 255
45.6003 41 1.7137001 0 40 255
45.6003 41 1.7862999 0 40 255
45.6003 41 1.859 0 40 255
45.6003 41 1.932 0 40 255
45.6003 41 2.0051999 0 40 255
45.6003 41 2.0785999 0 40 255
45.6003 41 2.1522999 0 40 255
45.6003 41 2.2262001 0 40 255
45.6003 41 2.3004999 0 40 255
45.6003 41 2.375 0 40 255
45.6003 41 2.4498 0 40 255
45.6003 41 2.5249 0 40 255
45.6003 41 2.6003001 0 40 255
45.6003 41 2.6761 0 40 255
45.6003 41 2.7521999 0 40 255
45.6003 41 2.8288 0 40 255
45.6003 41 2.9056001 0 40 255
45.6003 41 2.9828999 0 40 255
45.6003 41 3.0606 0 40 255
45.6003 41 3.1387999 0 40 255
45.6003 41 3.2174001 0 40 255
45.6003 41 3.2964001 0 40 255
45.6003 41 3.3759 0 40 255
45.6003 41 3.4559 0 40 255
45.6576 41 0.0060000001 0 40 255
45.6576 41 0.076700002 0 40 255
45.6576 41 0.14740001 0 40 255
45.6576 41 0.21799999 0 40 255
45.6576 41 0.28850001 0 40 255
45.6576 41 0.359 0 40 255
45.6576 41 0.42950001 0 40 255
45.6576 41 0.5 0 40 255
45.6576 41 0.57050002 0 40 255
45.6576 41 0.64099997 0 40 255
45.6576 41 0.71149999 0 40 255
45.6576 41 0.78200001 0 40 255
45.6576 41 0.85259998 0 40 255
45.6576 41 0.92330003 0 40 255
45.6576 41 0.99400002 0 40 255
45.6576 41 1.0647 0 40 255
45.6576 41 1.1356 0 40 255
45.6576 41 1.2066 0 40 255
45.6576 41 1.2776999 0 40 255
45.6576 41 1.3489 0 40 255
45.6576 41 1.4202 0 40 255
45.6576 41 1.4916 0 40 255
45.6576 41 1.5633 0 40 255
45.6576 41 1.707 0 40 255
45.6576 41 1.7792 0 40 255
45.6576 41 1.8515 0 40 255
45.6576 41 1.9241 0 40 255
45.6576 41 1.9969 0 40 255
45.6576 41 2.0699 0 40 255
45.6576 41 2.1431 0 40 255
45.6576 41 2.2167001 0 40 255
45.6576 41 2.2904999 0 40 255
45.6576 41 2.3645999 0 40 255
45.6576 41 2.4389 0 40 255
45.6576 41 2.5136001 0 40 255
45.6576 41 2.5887001 0 40 255
45.6576 41 2.664 0 40 255
45.6576 41 2.7398 0 40 255
45.6576 41 2.8158 0 40 255
45.6576 41 2.8922999 0 40 255
45.6576 41 2.9691999 0 40 255
45.6576 41 3.0464001 0 40 255
45.6576 41 3.1241 0 40 255
45.6576 41 3.2023001 0 40 255
45.6576 41 3.2809 0 40 255
45.6576 41 3.3599999 0 40 255
45.6576 41 3.4395001 0 40 255
45.714199 41 0.0087000001 0 40 255
45.714199 41 0.079099998 0 40 255
45.714199 41 0.14929999 0 40 255
45.714199 41 0.21950001 0 40 255
45.714199 41 0.2897 0 40 255
45.714199 41 0.35980001 0 40 255
45.714199 41 0.42989999 0 40 255
45.714199 41 0.5 0 40 255
45.714199 41 0.57010001 0 40 255
45.714199 41 0.64020002 0 40 255
45.714199 41 0.71030003 0 40 255
45.714199 41 0.78049999 0 40 255
45.714199 41 0.85070002 0 40 255
45.714199 41 0.92089999 0 40 255
45.714199 41 0.99129999 0 40 255
45.714199 41 1.0616 0 40 255
45.714199 41 1.1321 0 40 255
45.714199 41 1.2027 0 40 255
45.714199 41 1.2733999 0 40 255
45.714199 41 1.3442 0 40 255
45.714199 41 1.4151 0 40 255
45.714199 41 1.4862 0 40 255
45.714199 41 1.5574 0 40 255
45.714199 41 1.7004 0 40 255
45.714199 41 1.7721 0 40 255
45.714199 41 1.8441 0 40 255
45.714199 41 1.9162 0 40 255
45.714199 41 1.9886 0 40 255
45.714199 41 2.0611999 0 40 255
45.714199 41 2.1341 0 40 255
45.714199 41 2.2072001 0 40 255
45.714199 41 2.2806001 0 40 255
45.714199 41 2.3543 0 40 255
45.714199 41 2.4282999 0 40 255
45.714199 41 2.5026 0 40 255
45.714199 41 2.5771999 0 40 255
45.714199 41 2.6521001 0 40 255
45.714199 41 2.7274001 0 40 255
45.714199 41 2.8031001 0 40 255
45.714199 41 2.8792 0 40 255
45.714199 41 2.9556 0 40 255
45.714199 41 3.0325 0 40 255
45.714199 41 3.1097 0 40 255
45.714199 41 3.1874001 0 40 255
45.714199 41 3.2656 0 40 255
45.714199 41 3.3441999 0 40 255
45.714199 41 3.4233999 0 40 255
45.770199 41 0.0114 0 40 255
45.770199 41 0.0814 0 40 255
45.770199 41 0.1512 0 40 255
45.770199 41 0.221 0 40 255
45.770199 41 0.29080001 0 40 255
45.770199 41 0.36059999 0 40 255
45.770199 41 0.4303 0 40 255
45.770199 41 0.5 0 40 255
45.770199 41 0.5697 0 40 255
45.770199 41 0.63940001 0 40 255
45.770199 41 0.70920002 0 40 255
45.770199 41 0.77899998 0 40 255
45.770199 41 0.8488 0 40 255
45.770199 41 0.91860002 0 40 255
45.770199 41 0.98860002 0 40 255
45.770199 41 1.0585999 0 40 255
45.770199 41 1.1287 0 40 255
45.770199 41 1.1989 0 40 255
45.770199 41 1.2692 0 40 255
45.770199 41 1.3396 0 40 255
45.770199 41 1.4101 0 40 255
45.770199 41 1.4808 0 40 255
45.770199 41 1.5517 0 40 255
45.770199 41 1.6938 0 40 255
45.770199 41 1.7652 0 40 255
45.770199 41 1.8368 0 40 255
45.770199 41 1.9085 0 40 255
45.770199 41 1.9805 0 40 255
45.770199 41 2.0527 0 40 255
45.770199 41 2.1252 0 40 255
45.770199 41 2.1979001 0 40 255
45.770199 41 2.2709 0 40 255
45.770199 41 2.3441999 0 40 255
45.770199 41 2.4177999 0 40 255
45.770199 41 2.4916999 0 40 255
45.770199 41 2.5659001 0 40 255
45.770199 41 2.6403999 0 40 255
45.770199 41 2.7153001 0 40 255
45.770199 41 2.7906001 0 40 255
45.770199 41 2.8662 0 40 255
45.770199 41 2.9421999 0 40 255
45.770199 41 3.0186999 0 40 255
45.770199 41 3.0955 0 40 255
45.770199 41 3.1728001 0 40 255
45.770199 41 3.2505 0 40 255
45.770199 41 3.3288 0 40 255
45.770199 41 3.4075 0 40 255
45.8255 41 0.0141 0 40 255
45.8255 41 0.0836 0 40 255
45.8255 41 0.1531 0 40 255
45.8255 41 0.2226 0 40 255
45.8255 41 0.292 0 40 255
45.8255 41 0.36129999 0 40 255
45.8255 41 0.4307 0 40 255
45.8255 41 0.5 0 40 255
45.8255 41 0.5693 0 40 255
45.8255 41 0.63870001 0 40 255
45.8255 41 0.708 0 40 255
45.8255 41 0.77740002 0 40 255
45.8255 41 0.84689999 0 40 255
45.8255 41 0.91640002 0 40 255
45.8255 41 0.98589998 0 40 255
45.8255 41 1.0556 0 40 255
45.8255 41 1.1253 0 40 255
45.8255 41 1.1950999 0 40 255
45.8255 41 1.265 0 40 255
45.8255 41 1.3351001 0 40 255
45.8255 41 1.4052 0 40 255
45.8255 41 1.4755 0 40 255
45.8255 41 1.546 0 40 255
45.8255 41 1.6874 0 40 255
45.8255 41 1.7584 0 40 255
45.8255 41 1.8295 0 40 255
45.8255 41 1.9009 0 40 255
45.8255 41 1.9725 0 40 255
45.8255 41 2.0444 0 40 255
45.8255 41 2.1164 0 40 255
45.8255 41 2.1888001 0 40 255
45.8255 41 2.2614 0 40 255
45.8255 41 2.3343 0 40 255
45.8255 41 2.4073999 0 40 255
45.8255 41 2.4809 0 40 255
45.8255 41 2.5546999 0 40 255
45.8255 41 2.6289001 0 40 255
45.8255 41 2.7033999 0 40 255
45.8255 41 2.7781999 0 40 255
45.8255 41 2.8534 0 40 255
45.8255 41 2.9289999 0 40 255
45.8255 41 3.0051 0 40 255
45.8255 41 3.0815001 0 40 255
45.8255 41 3.1584001 0 40 255
45.8255 41 3.2356999 0 40 255
45.8255 41 3.3134999 0 40 255
45.8255 41 3.3917999 0 40 255
45.880299 41 0.0167 0 40 255
45.880299 41 0.0858 0 40 255
45.880299 41 0.155 0 40 255
45.880299 41 0.22400001 0 40 255
45.880299 41 0.2931 0 40 255
45.880299 41 0.36210001 0 40 255
45.880299 41 0.43099999 0 40 255
45.880299 41 0.5 0 40 255
45.880299 41 0.56900001 0 40 255
45.880299 41 0.63789999 0 40 255
45.880299 41 0.7069 0 40 255
45.880299 41 0.77600002 0 40 255
45.880299 41 0.84500003 0 40 255
45.880299 41 0.91420001 0 40 255
45.880299 41 0.98329997 0 40 255
45.880299 41 1.0526 0 40 255
45.880299 41 1.1219 0 40 255
45.880299 41 1.1914001 0 40 255
45.880299 41 1.2609 0 40 255
45.880299 41 1.3306 0 40 255
45.880299 41 1.4004 0 40 255
45.880299 41 1.4703 0 40 255
45.880299 41 1.5404 0 40 255
45.880299 41 1.6106 0 40 255
45.880299 41 1.681 0 40 255
45.880299 41 1.7516 0 40 255
45.880299 41 1.8224 0 40 255
45.880299 41 1.8934 0 40 255
45.880299 41 1.9647 0 40 255
45.880299 41 2.0360999 0 40 255
45.880299 41 2.1078 0 40 255
45.880299 41 2.1796999 0 40 255
45.880299 41 2.2520001 0 40 255
45.880299 41 2.3243999 0 40 255
45.880299 41 2.3972001 0 40 255
45.880299 41 2.4703 0 40 255
45.880299 41 2.5437 0 40 255
45.880299 41 2.6175001 0 40 255
45.880299 41 2.6916001 0 40 255
45.880299 41 2.766 0 40 255
45.880299 41 2.8408 0 40 255
45.880299 41 2.9161 0 40 255
45.880299 41 2.9916999 0 40 255
45.880299 41 3.0676999 0 40 255
45.880299 41 3.1442001 0 40 255
45.880299 41 3.2211001 0 40 255
45.880299 41 3.2983999 0 40 255
45.880299 41 3.3763001 0 40 255
45.934502 41 0.019200001 0 40 255
45.934502 41 0.088 0 40 255
45.934502 41 0.1568 0 40 255
45.934502 41 0.2255 0 40 255
45.934502 41 0.2942 0 40 255
45.934502 41 0.3628 0 40 255
45.934502 41 0.4314 0 40 255
45.934502 41 0.5 0 40 255
45.934502 41 0.5686 0 40 255
45.934502 41 0.6372 0 40 255
45.934502 41 0.7058 0 40 255
45.934502 41 0.77450001 0 40 255
45.934502 41 0.84320003 0 40 255
45.934502 41 0.912 0 40 255
45.934502 41 0.98079997 0 40 255
45.934502 41 1.0497 0 40 255
45.934502 41 1.1186 0 40 255
45.934502 41 1.1877 0 40 255
45.934502 41 1.2569 0 40 255
45.934502 41 1.3262 0 40 255
45.934502 41 1.3956 0 40 255
45.934502 41 1.4651999 0 40 255
45.934502 41 1.5349 0 40 255
45.934502 41 1.6047 0 40 255
45.934502 41 1.6748 0 40 255
45.934502 41 1.745 0 40 255
45.934502 41 1.8154 0 40 255
45.934502 41 1.886 0 40 255
45.934502 41 1.9569 0 40 255
45.934502 41 2.0280001 0 40 255
45.934502 41 2.0992999 0 40 255
45.934502 41 2.1708 0 40 255
45.934502 41 2.2427001 0 40 255
45.934502 41 2.3148 0 40 255
45.934502 41 2.3872001 0 40 255
45.934502 41 2.4598999 0 40 255
45.934502 41 2.5329001 0 40 255
45.934502 41 2.6063001 0 40 255
45.934502 41 2.6798999 0 40 255
45.934502 41 2.7539999 0 40 255
45.934502 41 2.8283999 0 40 255
45.934502 41 2.9031999 0 40 255
45.934502 41 2.9784999 0 40 255
45.934502 41 3.0541 0 40 255
45.934502 41 3.1301 0 40 255
45.934502 41 3.2066 0 40 255
45.934502 41 3.2836001 0 40 255
45.934502 41 3.3610001 0 40 255
45.988201 41 0.0217 0 40 255
45.988201 41 0.0902 0 40 255
45.988201 41 0.1586 0 40 255
45.988201 41 0.2269 0 40 255
45.988201 41 0.29519999 0 40 255
45.988201 41 0.3635 0 40 255
45.988201 41 0.43180001 0 40 255
45.988201 41 0.5 0 40 255
45.988201 41 0.56819999 0 40 255
45.988201 41 0.6365 0 40 255
45.988201 41 0.70480001 0 40 255
45.988201 41 0.77310002 0 40 255
45.988201 41 0.84140003 0 40 255
45.988201 41 0.90979999 0 40 255
45.988201 41 0.97829998 0 40 255
45.988201 41 1.0468 0 40 255
45.988201 41 1.1154 0 40 255
45.988201 41 1.1841 0 40 255
45.988201 41 1.2529 0 40 255
45.988201 41 1.3218 0 40 255
45.988201 41 1.3909 0 40 255
45.988201 41 1.4601001 0 40 255
45.988201 41 1.5294 0 40 255
45.988201 41 1.5989 0 40 255
45.988201 41 1.6686 0 40 255
45.988201 41 1.7385 0 40 255
45.988201 41 1.8085001 0 40 255
45.988201 41 1.8788 0 40 255
45.988201 41 1.9492 0 40 255
45.988201 41 2.0199001 0 40 255
45.988201 41 2.0908999 0 40 255
45.988201 41 2.1619999 0 40 255
45.988201 41 2.2335 0 40 255
45.988201 41 2.3052001 0 40 255
45.988201 41 2.3773 0 40 255
45.988201 41 2.4496 0 40 255
45.988201 41 2.5222001 0 40 255
45.988201 41 2.5952001 0 40 255
45.988201 41 2.6684999 0 40 255
45.988201 41 2.7421999 0 40 255
45.988201 41 2.8162 0 40 255
45.988201 41 2.8906 0 40 255
45.988201 41 2.9654 0 40 255
45.988201 41 3.0407 0 40 255
45.988201 41 3.1163001 0 40 255
45.988201 41 3.1924 0 40 255
45.988201 41 3.2690001 0 40 255
45.988201 41 3.346 0 40 255
46 40.965401 0.0209 0 40 255
46 40.965401 0.089500003 0 40 255
46 40.965401 0.15800001 0 40 255
46 40.965401 0.2265 0 40 255
46 40.965401 0.2949 0 40 255
46 40.965401 0.3633 0 40 255
46 40.965401 0.4316 0 40 255
46 40.965401 0.5 0 40 255
46 40.965401 0.56840003 0 40 255
46 40.965401 0.63669997 0 40 255
46 40.965401 0.7051 0 40 255
46 40.965401 0.77350003 0 40 255
46 40.965401 0.84200001 0 40 255
46 40.965401 0.91049999 0 40 255
46 40.965401 0.97909999 0 40 255
46 40.965401 1.0477 0 40 255
46 40.965401 1.1164 0 40 255
46 40.965401 1.1853 0 40 255
46 40.965401 1.2542 0 40 255
46 40.965401 1.3232 0 40 255
46 40.965401 1.3924 0 40 255
46 40.965401 1.4617 0 40 255
46 40.965401 1.5312001 0 40 255
46 40.965401 1.6008 0 40 255
46 40.965401 1.6706001 0 40 255
46 40.965401 1.7405 0 40 255
46 40.965401 1.8107001 0 40 255
46 40.965401 1.8811001 0 40 255
46 40.965401 1.9517 0 40 255
46 40.965401 2.0225 0 40 255
46 40.965401 2.0934999 0 40 255
46 40.965401 2.1647999 0 40 255
46 40.965401 2.2363999 0 40 255
46 40.965401 2.3083 0 40 255
46 40.965401 2.3803999 0 40 255
46 40.965401 2.4528 0 40 255
46 40.965401 2.5256 0 40 255
46 40.965401 2.5987 0 40 255
46 40.965401 2.6721001 0 40 255
46 40.965401 2.7458999 0 40 255
46 40.965401 2.8201001 0 40 255
46 40.965401 2.8945999 0 40 255
46 40.965401 2.9696 0 40 255
46 40.965401 3.0448999 0 40 255
46 40.965401 3.1206999 0 40 255
46 40.965401 3.1968999 0 40 255
46 40.965401 3.2736001 0 40 255
46 40.965401 3.3508 0 40 255
46 40.920601 0.019200001 0 40 255
46 40.920601 0.088 0 40 255
46 40.920601 0.1568 0 40 255
46 40.920601 0.2255 0 40 255
46 40.920601 0.29409999 0 40 255
46 40.920601 0.3628 0 40 255
46 40.920601 0.4314 0 40 255
46 40.920601 0.5 0 40 255
46 40.920601 0.5686 0 40 255
46 40.920601 0.6372 0 40 255
46 40.920601 0.70590001 0 40 255
46 40.920601 0.77450001 0 40 255
46 40.920601 0.84320003 0 40 255
46 40.920601 0.912 0 40 255
46 40.920601 0.98079997 0 40 255
46 40.920601 1.0497 0 40 255
46 40.920601 1.1187 0 40 255
46 40.920601 1.1878 0 40 255
46 40.920601 1.257 0 40 255
46 40.920601 1.3263 0 40 255
46 40.920601 1.3957 0 40 255
46 40.920601 1.4651999 0 40 255
46 40.920601 1.535 0 40 255
46 40.920601 1.6048 0 40 255
46 40.920601 1.6749001 0 40 255
46 40.920601 1.7451 0 40 255
46 40.920601 1.8155 0 40 255
46 40.920601 1.8862 0 40 255
46 40.920601 1.957 0 40 255
46 40.920601 2.0281 0 40 255
46 40.920601 2.0994 0 40 255
46 40.920601 2.171 0 40 255
46 40.920601 2.2428 0 40 255
46 40.920601 2.3148999 0 40 255
46 40.920601 2.3873 0 40 255
46 40.920601 2.46 0 40 255
46 40.920601 2.5330999 0 40 255
46 40.920601 2.6064 0 40 255
46 40.920601 2.6801 0 40 255
46 40.920601 2.7542 0 40 255
46 40.920601 2.8285999 0 40 255
46 40.920601 2.9033999 0 40 255
46 40.920601 2.9786999 0 40 255
46 40.920601 3.0543001 0 40 255
46 40.920601 3.1303999 0 40 255
46 40.920601 3.2068999 0 40 255
46 40.920601 3.2837999 0 40 255
46 40.920601 3.3613 0 40 255
46 40.8755 0.0174 0 40 255
46 40.8755 0.086499996 0 40 255
46 40.8755 0.15549999 0 40 255
46 40.8755 0.2245 0 40 255
46 40.8755 0.29339999 0 40 255
46 40.8755 0.36230001 0 40 255
46 40.8755 0.43110001 0 40 255
46 40.8755 0.5 0 40 255
46 40.8755 0.56889999 0 40 255
46 40.8755 0.63770002 0 40 255
46 40.8755 0.70660001 0 40 255
46 40.8755 0.7755 0 40 255
46 40.8755 0.84450001 0 40 255
46 40.8755 0.91350001 0 40 255
46 40.8755 0.98259997 0 40 255
46 40.8755 1.0518 0 40 255
46 40.8755 1.1210001 0 40 255
46 40.8755 1.1903 0 40 255
46 40.8755 1.2598 0 40 255
46 40.8755 1.3293 0 40 255
46 40.8755 1.399 0 40 255
46 40.8755 1.4687999 0 40 255
46 40.8755 1.5388 0 40 255
46 40.8755 1.6792001 0 40 255
46 40.8755 1.7497 0 40 255
46 40.8755 1.8204 0 40 255
