ply
format ascii 1.0
comment PCL generated
element vertex 1501
property float x
property float y
property float z
property uchar red
property uchar green
property uchar blue
element camera 0
property float view_px
property float view_py
property float view_pz
property float x_axisx
property float x_axisy
property float x_axisz
property float y_axisx
property float y_axisy
property float y_axisz
property float z_axisx
property float z_axisy
property float z_axisz
property float focal
property float scalex
property float scaley
property float centerx
property float centery
property int viewportx
property int viewporty
property float k1
property float k2
end_header
55.0541 50 0.1455 0 200 255
55.0541 50 0.17299999 0 200 255
55.0541 50 0.20039999 0 200 255
55.0541 50 0.2278 0 200 255
55.0541 50 0.2552 0 200 255
55.0541 50 0.2825 0 200 255
55.0541 50 0.30970001 0 200 255
55.0541 50 0.33700001 0 200 255
55.0541 50 0.3642 0 200 255
55.0541 50 0.39140001 0 200 255
55.0541 50 0.41850001 0 200 255
55.0541 50 0.44569999 0 200 255
55.0541 50 0.4729 0 200 255
55.0541 50 0.5 0 200 255
55.0541 50 0.52710003 0 200 255
55.0541 50 0.55430001 0 200 255
55.0541 50 0.58149999 0 200 255
55.0541 50 0.60860002 0 200 255
55.0541 50 0.6358 0 200 255
55.0541 50 0.66299999 0 200 255
55.0541 50 0.69029999 0 200 255
55.0541 50 0.71749997 0 200 255
55.0541 50 0.74479997 0 200 255
55.0541 50 0.77219999 0 200 255
55.0541 50 0.79960001 0 200 255
55.0541 50 0.82700002 0 200 255
55.0541 50 0.8545 0 200 255
55.0541 50 0.88200003 0 200 255
55.0541 50 0.90960002 0 200 255
55.0541 50 0.93720001 0 200 255
55.0541 50 0.96490002 0 200 255
55.0541 50 0.99269998 0 200 255
55.0541 50 1.0206 0 200 255
55.0541 50 1.0484999 0 200 255
55.0541 50 1.0766 0 200 255
55.0541 50 1.1047 0 200 255
55.0541 50 1.1329 0 200 255
55.0541 50 1.1612999 0 200 255
55.0541 50 1.1897 0 200 255
55.0541 50 1.2182 0 200 255
55.0541 50 1.2469 0 200 255
55.0541 50 1.2757 0 200 255
55.0541 50 1.3046 0 200 255
55.0541 50 1.3336 0 200 255
55.0541 50 1.3628 0 200 255
55.0541 50 1.3921 0 200 255
55.0541 50 1.4215 0 200 255
55.0541 50 1.4511 0 200 255
55.0541 50 1.4809 0 200 255
55.0541 50 1.5108 0 200 255
55.0541 50 1.5409 0 200 255
55.0541 50 1.5712 0 200 255
55.0541 50 1.6016999 0 200 255
55.0541 50 1.6323 0 200 255
55.011299 50 0.028999999 0 200 255
55.011299 50 0.057100002 0 200 255
55.011299 50 0.085100003 0 200 255
55.011299 50 0.113 0 200 255
55.011299 50 0.1409 0 200 255
55.011299 50 0.1688 0 200 255
55.011299 50 0.1965 0 200 255
55.011299 50 0.2243 0 200 255
55.011299 50 0.252 0 200 255
55.011299 50 0.27959999 0 200 255
55.011299 50 0.30720001 0 200 255
55.011299 50 0.3348 0 200 255
55.011299 50 0.3624 0 200 255
55.011299 50 0.3899 0 200 255
55.011299 50 0.41749999 0 200 255
55.011299 50 0.44499999 0 200 255
55.011299 50 0.4725 0 200 255
55.011299 50 0.5 0 200 255
55.011299 50 0.52749997 0 200 255
55.011299 50 0.55500001 0 200 255
55.011299 50 0.58249998 0 200 255
55.011299 50 0.61009997 0 200 255
55.011299 50 0.6376 0 200 255
55.011299 50 0.6652 0 200 255
55.011299 50 0.69279999 0 200 255
55.011299 50 0.72039998 0 200 255
55.011299 50 0.74800003 0 200 255
55.011299 50 0.77569997 0 200 255
55.011299 50 0.8035 0 200 255
55.011299 50 0.8312 0 200 255
55.011299 50 0.85909998 0 200 255
55.011299 50 0.88700002 0 200 255
55.011299 50 0.9149 0 200 255
55.011299 50 0.9429 0 200 255
55.011299 50 0.97100002 0 200 255
55.011299 50 0.99919999 0 200 255
55.011299 50 1.0274 0 200 255
55.011299 50 1.0556999 0 200 255
55.011299 50 1.0841 0 200 255
55.011299 50 1.1126 0 200 255
55.011299 50 1.1411999 0 200 255
55.011299 50 1.1698999 0 200 255
55.011299 50 1.1987 0 200 255
55.011299 50 1.2276 0 200 255
55.011299 50 1.2566 0 200 255
55.011299 50 1.2858 0 200 255
55.011299 50 1.3150001 0 200 255
55.011299 50 1.3444 0 200 255
55.011299 50 1.374 0 200 255
55.011299 50 1.4037 0 200 255
55.011299 50 1.4335001 0 200 255
55.011299 50 1.4635 0 200 255
55.011299 50 1.4937 0 200 255
55.011299 50 1.524 0 200 255
55.011299 50 1.5545 0 200 255
55.011299 50 1.5852 0 200 255
55.011299 50 1.6160001 0 200 255
55.011299 50 1.6471 0 200 255
55.011299 51 0.028999999 0 200 255
55.011299 51 0.057100002 0 200 255
55.011299 51 0.085100003 0 200 255
55.011299 51 0.113 0 200 255
55.011299 51 0.1409 0 200 255
55.011299 51 0.1688 0 200 255
55.011299 51 0.1965 0 200 255
55.011299 51 0.2243 0 200 255
55.011299 51 0.252 0 200 255
55.011299 51 0.27959999 0 200 255
55.011299 51 0.30720001 0 200 255
55.011299 51 0.3348 0 200 255
55.011299 51 0.3624 0 200 255
55.011299 51 0.3899 0 200 255
55.011299 51 0.41749999 0 200 255
55.011299 51 0.44499999 0 200 255
55.011299 51 0.4725 0 200 255
55.011299 51 0.5 0 200 255
55.011299 51 0.52749997 0 200 255
55.011299 51 0.55500001 0 200 255
55.011299 51 0.58249998 0 200 255
55.011299 51 0.61009997 0 200 255
55.011299 51 0.6376 0 200 255
55.011299 51 0.6652 0 200 255
55.011299 51 0.69279999 0 200 255
55.011299 51 0.72039998 0 200 255
55.011299 51 0.74800003 0 200 255
55.011299 51 0.77569997 0 200 255
55.011299 51 0.8035 0 200 255
55.011299 51 0.8312 0 200 255
55.011299 51 0.85909998 0 200 255
55.011299 51 0.88700002 0 200 255
55.011299 51 0.9149 0 200 255
55.011299 51 0.9429 0 200 255
55.011299 51 0.97100002 0 200 255
55.011299 51 0.99919999 0 200 255
55.011299 51 1.0274 0 200 255
55.011299 51 1.0556999 0 200 255
55.011299 51 1.0841 0 200 255
55.011299 51 1.1126 0 200 255
55.011299 51 1.1411999 0 200 255
55.011299 51 1.1698999 0 200 255
55.011299 51 1.1987 0 200 255
55.011299 51 1.2276 0 200 255
55.011299 51 1.2566 0 200 255
55.011299 51 1.2858 0 200 255
55.011299 51 1.3150001 0 200 255
55.011299 51 1.3444 0 200 255
55.011299 51 1.374 0 200 255
55.011299 51 1.4037 0 200 255
55.011299 51 1.4335001 0 200 255
55.011299 51 1.4635 0 200 255
55.011299 51 1.4937 0 200 255
55.011299 51 1.524 0 200 255
55.011299 51 1.5545 0 200 255
55.011299 51 1.5852 0 200 255
55.011299 51 1.6160001 0 200 255
55.011299 51 1.6471 0 200 255
55.0541 51 0.0073000002 0 200 255
55.0541 51 0.035100002 0 200 255
55.0541 51 0.062799998 0 200 255
55.0541 51 0.090400003 0 200 255
55.0541 51 0.118 0 200 255
55.0541 51 0.1455 0 200 255
55.0541 51 0.17299999 0 200 255
55.0541 51 0.20039999 0 200 255
55.0541 51 0.2278 0 200 255
55.0541 51 0.2552 0 200 255
55.0541 51 0.2825 0 200 255
55.0541 51 0.30970001 0 200 255
55.0541 51 0.33700001 0 200 255
55.0541 51 0.3642 0 200 255
55.0541 51 0.39140001 0 200 255
55.0541 51 0.41850001 0 200 255
55.0541 51 0.44569999 0 200 255
55.0541 51 0.4729 0 200 255
55.0541 51 0.5 0 200 255
55.0541 51 0.52710003 0 200 255
55.0541 51 0.55430001 0 200 255
55.0541 51 0.58149999 0 200 255
55.0541 51 0.60860002 0 200 255
55.0541 51 0.6358 0 200 255
55.0541 51 0.66299999 0 200 255
55.0541 51 0.69029999 0 200 255
55.0541 51 0.71749997 0 200 255
55.0541 51 0.74479997 0 200 255
55.0541 51 0.77219999 0 200 255
55.0541 51 0.79960001 0 200 255
55.0541 51 0.82700002 0 200 255
55.0541 51 0.8545 0 200 255
55.0541 51 0.88200003 0 200 255
55.0541 51 0.90960002 0 200 255
55.0541 51 0.93720001 0 200 255
55.0541 51 0.96490002 0 200 255
55.0541 51 0.99269998 0 200 255
55.0541 51 1.0206 0 200 255
55.0541 51 1.0484999 0 200 255
55.0541 51 1.0766 0 200 255
55.0541 51 1.1047 0 200 255
55.0541 51 1.1329 0 200 255
55.0541 51 1.1612999 0 200 255
55.0541 51 1.1897 0 200 255
55.0541 51 1.2182 0 200 255
55.0541 51 1.2469 0 200 255
55.0541 51 1.2757 0 200 255
55.0541 51 1.3046 0 200 255
55.0541 51 1.3336 0 200 255
55.0541 51 1.3628 0 200 255
55.0541 51 1.3921 0 200 255
55.0541 51 1.4215 0 200 255
55.0541 51 1.4511 0 200 255
55.0541 51 1.4809 0 200 255
55.0541 51 1.5108 0 200 255
55.0541 51 1.5409 0 200 255
55.0541 51 1.5712 0 200 255
55.0541 51 1.6016999 0 200 255
55.0541 51 1.6323 0 200 255
55.095798 51 0.0135 0 200 255
55.095798 51 0.041000001 0 200 255
55.095798 51 0.068300001 0 200 255
55.095798 51 0.095600002 0 200 255
55.095798 51 0.1229 0 200 255
55.095798 51 0.15000001 0 200 255
55.095798 51 0.1772 0 200 255
55.095798 51 0.2042 0 200 255
55.095798 51 0.2313 0 200 255
55.095798 51 0.25830001 0 200 255
55.095798 51 0.2852 0 200 255
55.095798 51 0.31209999 0 200 255
55.095798 51 0.33899999 0 200 255
55.095798 51 0.36590001 0 200 255
55.095798 51 0.39269999 0 200 255
55.095798 51 0.41960001 0 200 255
55.095798 51 0.44639999 0 200 255
55.095798 51 0.47319999 0 200 255
55.095798 51 0.5 0 200 255
55.095798 51 0.52679998 0 200 255
55.095798 51 0.55360001 0 200 255
55.095798 51 0.58039999 0 200 255
55.095798 51 0.60729998 0 200 255
55.095798 51 0.63410002 0 200 255
55.095798 51 0.66100001 0 200 255
55.095798 51 0.68790001 0 200 255
55.095798 51 0.7148 0 200 255
55.095798 51 0.74169999 0 200 255
55.095798 51 0.7687 0 200 255
55.095798 51 0.79579997 0 200 255
55.095798 51 0.82279998 0 200 255
55.095798 51 0.85000002 0 200 255
55.095798 51 0.87709999 0 200 255
55.095798 51 0.90439999 0 200 255
55.095798 51 0.93169999 0 200 255
55.095798 51 0.95899999 0 200 255
55.095798 51 0.98650002 0 200 255
55.095798 51 1.0140001 0 200 255
55.095798 51 1.0416 0 200 255
55.095798 51 1.0693001 0 200 255
55.095798 51 1.097 0 200 255
55.095798 51 1.1249 0 200 255
55.095798 51 1.1529 0 200 255
55.095798 51 1.1809 0 200 255
55.095798 51 1.2091 0 200 255
55.095798 51 1.2374001 0 200 255
55.095798 51 1.2658 0 200 255
55.095798 51 1.2944 0 200 255
55.095798 51 1.323 0 200 255
55.095798 51 1.3518 0 200 255
55.095798 51 1.3807 0 200 255
55.095798 51 1.4098001 0 200 255
55.095798 51 1.4391 0 200 255
55.095798 51 1.4684 0 200 255
55.095798 51 1.498 0 200 255
55.095798 51 1.5276999 0 200 255
55.095798 51 1.5576 0 200 255
55.095798 51 1.5877 0 200 255
55.095798 51 1.6179 0 200 255
55.136501 51 0.0196 0 200 255
55.136501 51 0.046700001 0 200 255
55.136501 51 0.073700003 0 200 255
55.136501 51 0.1007 0 200 255
55.136501 51 0.1276 0 200 255
55.136501 51 0.15440001 0 200 255
55.136501 51 0.1812 0 200 255
55.136501 51 0.2079 0 200 255
55.136501 51 0.23459999 0 200 255
55.136501 51 0.2613 0 200 255
55.136501 51 0.2879 0 200 255
55.136501 51 0.3145 0 200 255
55.136501 51 0.34099999 0 200 255
55.136501 51 0.36759999 0 200 255
55.136501 51 0.39410001 0 200 255
55.136501 51 0.4206 0 200 255
55.136501 51 0.44710001 0 200 255
55.136501 51 0.47350001 0 200 255
55.136501 51 0.5 0 200 255
55.136501 51 0.52649999 0 200 255
55.136501 51 0.55290002 0 200 255
55.136501 51 0.5794 0 200 255
55.136501 51 0.60589999 0 200 255
55.136501 51 0.63239998 0 200 255
55.136501 51 0.65899998 0 200 255
55.136501 51 0.68550003 0 200 255
55.136501 51 0.71210003 0 200 255
55.136501 51 0.73869997 0 200 255
55.136501 51 0.76539999 0 200 255
55.136501 51 0.79210001 0 200 255
55.136501 51 0.81879997 0 200 255
55.136501 51 0.84560001 0 200 255
55.136501 51 0.87239999 0 200 255
55.136501 51 0.89929998 0 200 255
55.136501 51 0.92629999 0 200 255
55.136501 51 0.9533 0 200 255
55.136501 51 0.98040003 0 200 255
55.136501 51 1.0075999 0 200 255
55.136501 51 1.0348001 0 200 255
55.136501 51 1.0622 0 200 255
55.136501 51 1.0896 0 200 255
55.136501 51 1.1171 0 200 255
55.136501 51 1.1447001 0 200 255
55.136501 51 1.1724 0 200 255
55.136501 51 1.2003 0 200 255
55.136501 51 1.2282 0 200 255
55.136501 51 1.2562 0 200 255
55.136501 51 1.2844 0 200 255
55.136501 51 1.3127 0 200 255
55.136501 51 1.3412 0 200 255
55.136501 51 1.3697 0 200 255
55.136501 51 1.3985 0 200 255
55.136501 51 1.4273 0 200 255
55.136501 51 1.4563 0 200 255
55.136501 51 1.4855 0 200 255
55.136501 51 1.5149 0 200 255
55.136501 51 1.5444 0 200 255
55.136501 51 1.5741 0 200 255
55.136501 51 1.604 0 200 255
55.176102 51 0.0255 0 200 255
55.176102 51 0.052299999 0 200 255
55.176102 51 0.079000004 0 200 255
55.176102 51 0.1056 0 200 255
55.176102 51 0.1322 0 200 255
55.176102 51 0.1587 0 200 255
55.176102 51 0.1851 0 200 255
55.176102 51 0.2115 0 200 255
55.176102 51 0.2379 0 200 255
55.176102 51 0.2642 0 200 255
55.176102 51 0.29049999 0 200 255
55.176102 51 0.3168 0 200 255
55.176102 51 0.34299999 0 200 255
55.176102 51 0.36919999 0 200 255
55.176102 51 0.39539999 0 200 255
55.176102 51 0.42160001 0 200 255
55.176102 51 0.44769999 0 200 255
55.176102 51 0.47389999 0 200 255
55.176102 51 0.5 0 200 255
55.176102 51 0.52609998 0 200 255
55.176102 51 0.55229998 0 200 255
55.176102 51 0.57840002 0 200 255
55.176102 51 0.60460001 0 200 255
55.176102 51 0.63080001 0 200 255
55.176102 51 0.65700001 0 200 255
55.176102 51 0.6832 0 200 255
55.176102 51 0.70950001 0 200 255
55.176102 51 0.73580003 0 200 255
55.176102 51 0.76209998 0 200 255
55.176102 51 0.78850001 0 200 255
55.176102 51 0.81489998 0 200 255
55.176102 51 0.84130001 0 200 255
55.176102 51 0.8678 0 200 255
55.176102 51 0.8944 0 200 255
55.176102 51 0.921 0 200 255
55.176102 51 0.94770002 0 200 255
55.176102 51 0.9745 0 200 255
55.176102 51 1.0013 0 200 255
55.176102 51 1.0282 0 200 255
55.176102 51 1.0552 0 200 255
55.176102 51 1.0822999 0 200 255
55.176102 51 1.1095001 0 200 255
55.176102 51 1.1368001 0 200 255
55.176102 51 1.1641001 0 200 255
55.176102 51 1.1916 0 200 255
55.176102 51 1.2192 0 200 255
55.176102 51 1.2469 0 200 255
55.176102 51 1.2747 0 200 255
55.176102 51 1.3027 0 200 255
55.176102 51 1.3308001 0 200 255
55.176102 51 1.359 0 200 255
55.176102 51 1.3874 0 200 255
55.176102 51 1.4159 0 200 255
55.176102 51 1.4445 0 200 255
55.176102 51 1.4734 0 200 255
55.176102 51 1.5024 0 200 255
55.176102 51 1.5315 0 200 255
55.176102 51 1.5608 0 200 255
55.176102 51 1.5904 0 200 255
55.214802 51 0.0048000002 0 200 255
55.214802 51 0.031300001 0 200 255
55.214802 51 0.057700001 0 200 255
55.214802 51 0.084100001 0 200 255
55.214802 51 0.1104 0 200 255
55.214802 51 0.1366 0 200 255
55.214802 51 0.1628 0 200 255
55.214802 51 0.189 0 200 255
55.214802 51 0.21510001 0 200 255
55.214802 51 0.2411 0 200 255
55.214802 51 0.26710001 0 200 255
55.214802 51 0.2931 0 200 255
55.214802 51 0.31900001 0 200 255
55.214802 51 0.34490001 0 200 255
55.214802 51 0.37079999 0 200 255
55.214802 51 0.39669999 0 200 255
55.214802 51 0.42250001 0 200 255
55.214802 51 0.4483 0 200 255
55.214802 51 0.47420001 0 200 255
55.214802 51 0.5 0 200 255
55.214802 51 0.52579999 0 200 255
55.214802 51 0.5517 0 200 255
55.214802 51 0.57749999 0 200 255
55.214802 51 0.60329998 0 200 255
55.214802 51 0.62919998 0 200 255
55.214802 51 0.65509999 0 200 255
55.214802 51 0.68099999 0 200 255
55.214802 51 0.7069 0 200 255
55.214802 51 0.73290002 0 200 255
55.214802 51 0.75889999 0 200 255
55.214802 51 0.78490001 0 200 255
55.214802 51 0.81099999 0 200 255
55.214802 51 0.83719999 0 200 255
55.214802 51 0.86339998 0 200 255
55.214802 51 0.88959998 0 200 255
55.214802 51 0.91589999 0 200 255
55.214802 51 0.94230002 0 200 255
55.214802 51 0.96869999 0 200 255
55.214802 51 0.99519998 0 200 255
55.214802 51 1.0218 0 200 255
55.214802 51 1.0484999 0 200 255
55.214802 51 1.0752 0 200 255
55.214802 51 1.1021 0 200 255
55.214802 51 1.1289999 0 200 255
55.214802 51 1.1561 0 200 255
55.214802 51 1.1832 0 200 255
55.214802 51 1.2105 0 200 255
55.214802 51 1.2378 0 200 255
55.214802 51 1.2653 0 200 255
55.214802 51 1.2929 0 200 255
55.214802 51 1.3207 0 200 255
55.214802 51 1.3486 0 200 255
55.214802 51 1.3766 0 200 255
55.214802 51 1.4047 0 200 255
55.214802 51 1.4331 0 200 255
55.214802 51 1.4615 0 200 255
55.214802 51 1.4902 0 200 255
55.214802 51 1.5190001 0 200 255
55.214802 51 1.5479 0 200 255
55.214802 51 1.5771 0 200 255
55.252499 51 0.0107 0 200 255
55.252499 51 0.036899999 0 200 255
55.252499 51 0.063000001 0 200 255
55.252499 51 0.089100003 0 200 255
55.252499 51 0.1151 0 200 255
55.252499 51 0.141 0 200 255
55.252499 51 0.16689999 0 200 255
55.252499 51 0.1927 0 200 255
55.252499 51 0.2185 0 200 255
55.252499 51 0.24420001 0 200 255
55.252499 51 0.26989999 0 200 255
55.252499 51 0.29550001 0 200 255
55.252499 51 0.32120001 0 200 255
55.252499 51 0.3468 0 200 255
55.252499 51 0.3723 0 200 255
55.252499 51 0.39789999 0 200 255
55.252499 51 0.42340001 0 200 255
55.252499 51 0.449 0 200 255
55.252499 51 0.4745 0 200 255
55.252499 51 0.5 0 200 255
55.252499 51 0.5255 0 200 255
55.252499 51 0.551 0 200 255
55.252499 51 0.57660002 0 200 255
55.252499 51 0.60210001 0 200 255
55.252499 51 0.62769997 0 200 255
55.252499 51 0.65319997 0 200 255
55.252499 51 0.67879999 0 200 255
55.252499 51 0.70450002 0 200 255
55.252499 51 0.73009998 0 200 255
55.252499 51 0.75580001 0 200 255
55.252499 51 0.78149998 0 200 255
55.252499 51 0.80729997 0 200 255
55.252499 51 0.83310002 0 200 255
55.252499 51 0.85900003 0 200 255
55.252499 51 0.88489997 0 200 255
55.252499 51 0.9109 0 200 255
55.252499 51 0.93699998 0 200 255
55.252499 51 0.96310002 0 200 255
55.252499 51 0.98930001 0 200 255
55.252499 51 1.0154999 0 200 255
55.252499 51 1.0419 0 200 255
55.252499 51 1.0683 0 200 255
55.252499 51 1.0949 0 200 255
55.252499 51 1.1215 0 200 255
55.252499 51 1.1482 0 200 255
55.252499 51 1.175 0 200 255
55.252499 51 1.2019 0 200 255
55.252499 51 1.229 0 200 255
55.252499 51 1.2561001 0 200 255
55.252499 51 1.2834001 0 200 255
55.252499 51 1.3108 0 200 255
55.252499 51 1.3384 0 200 255
55.252499 51 1.3661 0 200 255
55.252499 51 1.3939 0 200 255
55.252499 51 1.4219 0 200 255
55.252499 51 1.45 0 200 255
55.252499 51 1.4783 0 200 255
55.252499 51 1.5067 0 200 255
55.252499 51 1.5354 0 200 255
55.252499 51 1.5642 0 200 255
55.289398 51 0.0165 0 200 255
55.289398 51 0.042399999 0 200 255
55.289398 51 0.0682 0 200 255
55.289398 51 0.093999997 0 200 255
55.289398 51 0.1196 0 200 255
55.289398 51 0.1453 0 200 255
55.289398 51 0.1708 0 200 255
55.289398 51 0.1963 0 200 255
55.289398 51 0.2218 0 200 255
55.289398 51 0.2472 0 200 255
55.289398 51 0.2726 0 200 255
55.289398 51 0.29800001 0 200 255
55.289398 51 0.3233 0 200 255
55.289398 51 0.3486 0 200 255
55.289398 51 0.3739 0 200 255
55.289398 51 0.39910001 0 200 255
55.289398 51 0.42429999 0 200 255
55.289398 51 0.44960001 0 200 255
55.289398 51 0.47479999 0 200 255
55.289398 51 0.5 0 200 255
55.289398 51 0.52520001 0 200 255
55.289398 51 0.55040002 0 200 255
55.289398 51 0.57569999 0 200 255
55.289398 51 0.60089999 0 200 255
55.289398 51 0.6261 0 200 255
55.289398 51 0.65140003 0 200 255
55.289398 51 0.6767 0 200 255
55.289398 51 0.70200002 0 200 255
55.289398 51 0.7274 0 200 255
55.289398 51 0.75279999 0 200 255
55.289398 51 0.77819997 0 200 255
55.289398 51 0.80369997 0 200 255
55.289398 51 0.82920003 0 200 255
55.289398 51 0.85470003 0 200 255
55.289398 51 0.8804 0 200 255
55.289398 51 0.90600002 0 200 255
55.289398 51 0.93180001 0 200 255
55.289398 51 0.9576 0 200 255
55.289398 51 0.9835 0 200 255
55.289398 51 1.0094 0 200 255
55.289398 51 1.0355 0 200 255
55.289398 51 1.0616 0 200 255
55.289398 51 1.0878 0 200 255
55.289398 51 1.1141 0 200 255
55.289398 51 1.1404999 0 200 255
55.289398 51 1.1670001 0 200 255
55.289398 51 1.1936001 0 200 255
55.289398 51 1.2204 0 200 255
55.289398 51 1.2472 0 200 255
55.289398 51 1.2742 0 200 255
55.289398 51 1.3012 0 200 255
55.289398 51 1.3285 0 200 255
55.289398 51 1.3558 0 200 255
55.289398 51 1.3832999 0 200 255
55.289398 51 1.411 0 200 255
55.289398 51 1.4387 0 200 255
55.289398 51 1.4667 0 200 255
55.289398 51 1.4948 0 200 255
55.289398 51 1.5231 0 200 255
55.289398 51 1.5516 0 200 255
55.325401 51 0.0222 0 200 255
55.325401 51 0.047699999 0 200 255
55.325401 51 0.073299997 0 200 255
55.325401 51 0.098700002 0 200 255
55.325401 51 0.1241 0 200 255
55.325401 51 0.1494 0 200 255
55.325401 51 0.17470001 0 200 255
55.325401 51 0.1999 0 200 255
55.325401 51 0.2251 0 200 255
55.325401 51 0.2502 0 200 255
55.325401 51 0.2753 0 200 255
55.325401 51 0.3003 0 200 255
55.325401 51 0.32539999 0 200 255
55.325401 51 0.3504 0 200 255
55.325401 51 0.37529999 0 200 255
55.325401 51 0.4003 0 200 255
55.325401 51 0.42519999 0 200 255
55.325401 51 0.45019999 0 200 255
55.325401 51 0.47510001 0 200 255
55.325401 51 0.5 0 200 255
55.325401 51 0.52490002 0 200 255
55.325401 51 0.54979998 0 200 255
55.325401 51 0.57480001 0 200 255
55.325401 51 0.59969997 0 200 255
55.325401 51 0.62470001 0 200 255
55.325401 51 0.64960003 0 200 255
55.325401 51 0.67460001 0 200 255
55.325401 51 0.6997 0 200 255
55.325401 51 0.72469997 0 200 255
55.325401 51 0.74980003 0 200 255
55.325401 51 0.77490002 0 200 255
55.325401 51 0.80010003 0 200 255
55.325401 51 0.82529998 0 200 255
55.325401 51 0.8506 0 200 255
55.325401 51 0.87589997 0 200 255
55.325401 51 0.90130001 0 200 255
55.325401 51 0.9267 0 200 255
55.325401 51 0.95230001 0 200 255
55.325401 51 0.97780001 0 200 255
55.325401 51 1.0035 0 200 255
55.325401 51 1.0292 0 200 255
55.325401 51 1.0549999 0 200 255
55.325401 51 1.0809 0 200 255
55.325401 51 1.1069 0 200 255
55.325401 51 1.133 0 200 255
55.325401 51 1.1592 0 200 255
55.325401 51 1.1855 0 200 255
55.325401 51 1.2119 0 200 255
55.325401 51 1.2385 0 200 255
55.325401 51 1.2651 0 200 255
55.325401 51 1.2919 0 200 255
55.325401 51 1.3188 0 200 255
55.325401 51 1.3458 0 200 255
55.325401 51 1.373 0 200 255
55.325401 51 1.4003 0 200 255
55.325401 51 1.4278001 0 200 255
55.325401 51 1.4554 0 200 255
55.325401 51 1.4832 0 200 255
55.325401 51 1.5112 0 200 255
55.325401 51 1.5393 0 200 255
55.3606 51 0.0023000001 0 200 255
55.3606 51 0.0277 0 200 255
55.3606 51 0.052999999 0 200 255
55.3606 51 0.078199998 0 200 255
55.3606 51 0.1033 0 200 255
55.3606 51 0.1284 0 200 255
55.3606 51 0.1534 0 200 255
55.3606 51 0.17839999 0 200 255
55.3606 51 0.2033 0 200 255
55.3606 51 0.2282 0 200 255
55.3606 51 0.25310001 0 200 255
55.3606 51 0.27790001 0 200 255
55.3606 51 0.3026 0 200 255
55.3606 51 0.3274 0 200 255
55.3606 51 0.35210001 0 200 255
55.3606 51 0.3768 0 200 255
55.3606 51 0.4014 0 200 255
55.3606 51 0.42609999 0 200 255
55.3606 51 0.45070001 0 200 255
55.3606 51 0.4754 0 200 255
55.3606 51 0.5 0 200 255
55.3606 51 0.52460003 0 200 255
55.3606 51 0.54930001 0 200 255
55.3606 51 0.57389998 0 200 255
55.3606 51 0.59859997 0 200 255
55.3606 51 0.6232 0 200 255
55.3606 51 0.64789999 0 200 255
55.3606 51 0.67259997 0 200 255
55.3606 51 0.69739997 0 200 255
55.3606 51 0.72210002 0 200 255
55.3606 51 0.74690002 0 200 255
55.3606 51 0.77179998 0 200 255
55.3606 51 0.7967 0 200 255
55.3606 51 0.82160002 0 200 255
55.3606 51 0.8466 0 200 255
55.3606 51 0.87159997 0 200 255
55.3606 51 0.89670002 0 200 255
55.3606 51 0.92180002 0 200 255
55.3606 51 0.94700003 0 200 255
55.3606 51 0.97229999 0 200 255
55.3606 51 0.99769998 0 200 255
55.3606 51 1.0231 0 200 255
55.3606 51 1.0486 0 200 255
55.3606 51 1.0742 0 200 255
55.3606 51 1.0999 0 200 255
55.3606 51 1.1257 0 200 255
55.3606 51 1.1516 0 200 255
55.3606 51 1.1776 0 200 255
55.3606 51 1.2036999 0 200 255
55.3606 51 1.23 0 200 255
55.3606 51 1.2563 0 200 255
55.3606 51 1.2828 0 200 255
55.3606 51 1.3092999 0 200 255
55.3606 51 1.3361 0 200 255
55.3606 51 1.3629 0 200 255
55.3606 51 1.3899 0 200 255
55.3606 51 1.4171 0 200 255
55.3606 51 1.4444 0 200 255
55.3606 51 1.4719 0 200 255
55.3606 51 1.4995 0 200 255
55.3606 51 1.5273 0 200 255
55.394901 51 0.0080000004 0 200 255
55.394901 51 0.033 0 200 255
55.394901 51 0.057999998 0 200 255
55.394901 51 0.082999997 0 200 255
55.394901 51 0.1078 0 200 255
55.394901 51 0.13259999 0 200 255
55.394901 51 0.1574 0 200 255
55.394901 51 0.1821 0 200 255
55.394901 51 0.2067 0 200 255
55.394901 51 0.2313 0 200 255
55.394901 51 0.2559 0 200 255
55.394901 51 0.28040001 0 200 255
55.394901 51 0.30489999 0 200 255
55.394901 51 0.32929999 0 200 255
55.394901 51 0.3538 0 200 255
55.394901 51 0.37819999 0 200 255
55.394901 51 0.40259999 0 200 255
55.394901 51 0.4269 0 200 255
55.394901 51 0.4513 0 200 255
55.394901 51 0.4756 0 200 255
55.394901 51 0.5 0 200 255
55.394901 51 0.5244 0 200 255
55.394901 51 0.54869998 0 200 255
55.394901 51 0.57309997 0 200 255
55.394901 51 0.59740001 0 200 255
55.394901 51 0.62180001 0 200 255
55.394901 51 0.6462 0 200 255
55.394901 51 0.67070001 0 200 255
55.394901 51 0.69510001 0 200 255
55.394901 51 0.71960002 0 200 255
55.394901 51 0.74409997 0 200 255
55.394901 51 0.7687 0 200 255
55.394901 51 0.79329997 0 200 255
55.394901 51 0.8179 0 200 255
55.394901 51 0.84259999 0 200 255
55.394901 51 0.86739999 0 200 255
55.394901 51 0.89219999 0 200 255
55.394901 51 0.917 0 200 255
55.394901 51 0.94199997 0 200 255
55.394901 51 0.96700001 0 200 255
55.394901 51 0.99199998 0 200 255
55.394901 51 1.0172 0 200 255
55.394901 51 1.0424 0 200 255
55.394901 51 1.0677 0 200 255
55.394901 51 1.0931 0 200 255
55.394901 51 1.1186 0 200 255
55.394901 51 1.1442 0 200 255
55.394901 51 1.1698999 0 200 255
55.394901 51 1.1957 0 200 255
55.394901 51 1.2216001 0 200 255
55.394901 51 1.2477 0 200 255
55.394901 51 1.2738 0 200 255
55.394901 51 1.3001 0 200 255
55.394901 51 1.3266 0 200 255
55.394901 51 1.3530999 0 200 255
55.394901 51 1.3798 0 200 255
55.394901 51 1.4067 0 200 255
55.394901 51 1.4337 0 200 255
55.394901 51 1.4608001 0 200 255
55.394901 51 1.4881001 0 200 255
55.394901 51 1.5156 0 200 255
55.428501 51 0.0135 0 200 255
55.428501 51 0.0383 0 200 255
55.428501 51 0.063000001 0 200 255
55.428501 51 0.087700002 0 200 255
55.428501 51 0.1122 0 200 255
55.428501 51 0.13680001 0 200 255
55.428501 51 0.1612 0 200 255
55.428501 51 0.1856 0 200 255
55.428501 51 0.20999999 0 200 255
55.428501 51 0.2343 0 200 255
55.428501 51 0.2586 0 200 255
55.428501 51 0.28290001 0 200 255
55.428501 51 0.3071 0 200 255
55.428501 51 0.3312 0 200 255
55.428501 51 0.3554 0 200 255
55.428501 51 0.3795 0 200 255
55.428501 51 0.40369999 0 200 255
55.428501 51 0.4278 0 200 255
55.428501 51 0.45179999 0 200 255
55.428501 51 0.47589999 0 200 255
55.428501 51 0.5 0 200 255
55.428501 51 0.52410001 0 200 255
55.428501 51 0.54820001 0 200 255
55.428501 51 0.5722 0 200 255
55.428501 51 0.59630001 0 200 255
55.428501 51 0.62050003 0 200 255
55.428501 51 0.64459997 0 200 255
55.428501 51 0.6688 0 200 255
55.428501 51 0.6929 0 200 255
55.428501 51 0.71710002 0 200 255
55.428501 51 0.7414 0 200 255
55.428501 51 0.76569998 0 200 255
55.428501 51 0.79000002 0 200 255
55.428501 51 0.81440002 0 200 255
55.428501 51 0.83880001 0 200 255
55.428501 51 0.86320001 0 200 255
55.428501 51 0.88779998 0 200 255
55.428501 51 0.91229999 0 200 255
55.428501 51 0.93699998 0 200 255
55.428501 51 0.96170002 0 200 255
55.428501 51 0.98650002 0 200 255
55.428501 51 1.0114 0 200 255
55.428501 51 1.0362999 0 200 255
55.428501 51 1.0613 0 200 255
55.428501 51 1.0865 0 200 255
55.428501 51 1.1117001 0 200 255
55.428501 51 1.137 0 200 255
55.428501 51 1.1624 0 200 255
55.428501 51 1.1878999 0 200 255
55.428501 51 1.2135 0 200 255
55.428501 51 1.2393 0 200 255
55.428501 51 1.2652 0 200 255
55.428501 51 1.2912 0 200 255
55.428501 51 1.3173 0 200 255
55.428501 51 1.3435 0 200 255
55.428501 51 1.3699 0 200 255
55.428501 51 1.3965 0 200 255
55.428501 51 1.4232 0 200 255
55.428501 51 1.45 0 200 255
55.428501 51 1.477 0 200 255
55.428501 51 1.5042 0 200 255
55.461399 51 0.0189 0 200 255
55.461399 51 0.043400001 0 200 255
55.461399 51 0.067900002 0 200 255
55.461399 51 0.092200004 0 200 255
55.461399 51 0.1165 0 200 255
55.461399 51 0.1408 0 200 255
55.461399 51 0.16500001 0 200 255
55.461399 51 0.1891 0 200 255
55.461399 51 0.2132 0 200 255
55.461399 51 0.23729999 0 200 255
55.461399 51 0.2613 0 200 255
55.461399 51 0.28529999 0 200 255
55.461399 51 0.30919999 0 200 255
55.461399 51 0.33309999 0 200 255
55.461399 51 0.35699999 0 200 255
55.461399 51 0.3809 0 200 255
55.461399 51 0.40470001 0 200 255
55.461399 51 0.42860001 0 200 255
55.461399 51 0.4524 0 200 255
55.461399 51 0.47620001 0 200 255
55.461399 51 0.5 0 200 255
55.461399 51 0.52380002 0 200 255
55.461399 51 0.54759997 0 200 255
55.461399 51 0.57139999 0 200 255
55.461399 51 0.59530002 0 200 255
55.461399 51 0.61909997 0 200 255
55.461399 51 0.64300001 0 200 255
55.461399 51 0.66689998 0 200 255
55.461399 51 0.69080001 0 200 255
55.461399 51 0.71469998 0 200 255
55.461399 51 0.73869997 0 200 255
55.461399 51 0.76270002 0 200 255
55.461399 51 0.78680003 0 200 255
55.461399 51 0.81089997 0 200 255
55.461399 51 0.83499998 0 200 255
55.461399 51 0.8592 0 200 255
55.461399 51 0.88349998 0 200 255
55.461399 51 0.90780002 0 200 255
55.461399 51 0.9321 0 200 255
55.461399 51 0.95660001 0 200 255
55.461399 51 0.98110002 0 200 255
55.461399 51 1.0057 0 200 255
55.461399 51 1.0304 0 200 255
55.461399 51 1.0551 0 200 255
55.461399 51 1.08 0 200 255
55.461399 51 1.1049 0 200 255
55.461399 51 1.1299 0 200 255
55.461399 51 1.1551 0 200 255
55.461399 51 1.1803 0 200 255
55.461399 51 1.2056 0 200 255
55.461399 51 1.2311 0 200 255
55.461399 51 1.2567 0 200 255
55.461399 51 1.2824 0 200 255
55.461399 51 1.3082 0 200 255
55.461399 51 1.3342 0 200 255
55.461399 51 1.3602999 0 200 255
55.461399 51 1.3865 0 200 255
55.461399 51 1.4129 0 200 255
55.461399 51 1.4395 0 200 255
55.461399 51 1.4662 0 200 255
55.461399 51 1.4931 0 200 255
55.4935 51 0.0242 0 200 255
55.4935 51 0.0484 0 200 255
55.4935 51 0.0726 0 200 255
55.4935 51 0.096699998 0 200 255
55.4935 51 0.1207 0 200 255
55.4935 51 0.14470001 0 200 255
55.4935 51 0.16869999 0 200 255
55.4935 51 0.1925 0 200 255
55.4935 51 0.2164 0 200 255
55.4935 51 0.2402 0 200 255
55.4935 51 0.26390001 0 200 255
55.4935 51 0.28760001 0 200 255
55.4935 51 0.31130001 0 200 255
55.4935 51 0.33489999 0 200 255
55.4935 51 0.35859999 0 200 255
55.4935 51 0.3822 0 200 255
55.4935 51 0.40580001 0 200 255
55.4935 51 0.42930001 0 200 255
55.4935 51 0.45289999 0 200 255
55.4935 51 0.47639999 0 200 255
55.4935 51 0.5 0 200 255
55.4935 51 0.52359998 0 200 255
55.4935 51 0.54710001 0 200 255
55.4935 51 0.57069999 0 200 255
55.4935 51 0.59420002 0 200 255
55.4935 51 0.6178 0 200 255
55.4935 51 0.64139998 0 200 255
55.4935 51 0.66509998 0 200 255
55.4935 51 0.68870002 0 200 255
55.4935 51 0.71240002 0 200 255
55.4935 51 0.73610002 0 200 255
55.4935 51 0.75980002 0 200 255
55.4935 51 0.78359997 0 200 255
55.4935 51 0.8075 0 200 255
55.4935 51 0.83130002 0 200 255
55.4935 51 0.85530001 0 200 255
55.4935 51 0.8793 0 200 255
55.4935 51 0.90329999 0 200 255
55.4935 51 0.92739999 0 200 255
55.4935 51 0.95160002 0 200 255
55.4935 51 0.97579998 0 200 255
55.4935 51 1.0002 0 200 255
55.4935 51 1.0246 0 200 255
55.4935 51 1.049 0 200 255
55.4935 51 1.0736001 0 200 255
55.4935 51 1.0983 0 200 255
55.4935 51 1.123 0 200 255
55.4935 51 1.1479 0 200 255
55.4935 51 1.1727999 0 200 255
55.4935 51 1.1979001 0 200 255
55.4935 51 1.2230999 0 200 255
55.4935 51 1.2484 0 200 255
55.4935 51 1.2738 0 200 255
55.4935 51 1.2994 0 200 255
55.4935 51 1.3250999 0 200 255
55.4935 51 1.3509001 0 200 255
55.4935 51 1.3767999 0 200 255
55.4935 51 1.4029 0 200 255
55.4935 51 1.4292001 0 200 255
55.4935 51 1.4556 0 200 255
55.4935 51 1.4822 0 200 255
55.524899 51 0.0052 0 200 255
55.524899 51 0.029300001 0 200 255
55.524899 51 0.053300001 0 200 255
55.524899 51 0.077200003 0 200 255
55.524899 51 0.101 0 200 255
55.524899 51 0.1248 0 200 255
55.524899 51 0.1486 0 200 255
55.524899 51 0.17219999 0 200 255
55.524899 51 0.19589999 0 200 255
55.524899 51 0.2194 0 200 255
55.524899 51 0.243 0 200 255
55.524899 51 0.2665 0 200 255
55.524899 51 0.2899 0 200 255
55.524899 51 0.31330001 0 200 255
55.524899 51 0.33669999 0 200 255
55.524899 51 0.3601 0 200 255
55.524899 51 0.38339999 0 200 255
55.524899 51 0.4068 0 200 255
55.524899 51 0.43009999 0 200 255
55.524899 51 0.45339999 0 200 255
55.524899 51 0.47670001 0 200 255
55.524899 51 0.5 0 200 255
55.524899 51 0.52329999 0 200 255
55.524899 51 0.54659998 0 200 255
55.524899 51 0.56989998 0 200 255
55.524899 51 0.59320003 0 200 255
55.524899 51 0.61659998 0 200 255
55.524899 51 0.63990003 0 200 255
55.524899 51 0.66329998 0 200 255
55.524899 51 0.68669999 0 200 255
55.524899 51 0.7101 0 200 255
55.524899 51 0.7335 0 200 255
55.524899 51 0.75700003 0 200 255
55.524899 51 0.78060001 0 200 255
55.524899 51 0.80409998 0 200 255
55.524899 51 0.82779998 0 200 255
55.524899 51 0.85140002 0 200 255
55.524899 51 0.87519997 0 200 255
55.524899 51 0.89899999 0 200 255
55.524899 51 0.9228 0 200 255
55.524899 51 0.94669998 0 200 255
55.524899 51 0.97070003 0 200 255
55.524899 51 0.99479997 0 200 255
55.524899 51 1.0189 0 200 255
55.524899 51 1.0431 0 200 255
55.524899 51 1.0674 0 200 255
55.524899 51 1.0918 0 200 255
55.524899 51 1.1163 0 200 255
55.524899 51 1.1409 0 200 255
55.524899 51 1.1655999 0 200 255
55.524899 51 1.1904 0 200 255
55.524899 51 1.2153 0 200 255
55.524899 51 1.2403001 0 200 255
55.524899 51 1.2654999 0 200 255
55.524899 51 1.2907 0 200 255
55.524899 51 1.3161 0 200 255
55.524899 51 1.3417 0 200 255
55.524899 51 1.3674001 0 200 255
55.524899 51 1.3932 0 200 255
55.524899 51 1.4191999 0 200 255
55.524899 51 1.4453 0 200 255
55.524899 51 1.4716001 0 200 255
55.555698 51 0.0105 0 200 255
55.555698 51 0.034299999 0 200 255
55.555698 51 0.0581 0 200 255
55.555698 51 0.081699997 0 200 255
55.555698 51 0.1053 0 200 255
55.555698 51 0.1288 0 200 255
55.555698 51 0.1523 0 200 255
55.555698 51 0.17569999 0 200 255
55.555698 51 0.1991 0 200 255
55.555698 51 0.22239999 0 200 255
55.555698 51 0.2457 0 200 255
55.555698 51 0.26890001 0 200 255
55.555698 51 0.2922 0 200 255
55.555698 51 0.31529999 0 200 255
55.555698 51 0.33849999 0 200 255
55.555698 51 0.36160001 0 200 255
55.555698 51 0.3847 0 200 255
55.555698 51 0.40779999 0 200 255
55.555698 51 0.43079999 0 200 255
55.555698 51 0.45390001 0 200 255
55.555698 51 0.477 0 200 255
55.555698 51 0.5 0 200 255
55.555698 51 0.523 0 200 255
55.555698 51 0.54610002 0 200 255
55.555698 51 0.56919998 0 200 255
55.555698 51 0.59219998 0 200 255
55.555698 51 0.6153 0 200 255
55.555698 51 0.63840002 0 200 255
55.555698 51 0.66149998 0 200 255
55.555698 51 0.68470001 0 200 255
55.555698 51 0.70779997 0 200 255
55.555698 51 0.73110002 0 200 255
55.555698 51 0.7543 0 200 255
55.555698 51 0.77759999 0 200 255
55.555698 51 0.80089998 0 200 255
55.555698 51 0.82429999 0 200 255
55.555698 51 0.8477 0 200 255
55.555698 51 0.87120003 0 200 255
55.555698 51 0.89469999 0 200 255
55.555698 51 0.91829997 0 200 255
55.555698 51 0.94190001 0 200 255
55.555698 51 0.96569997 0 200 255
55.555698 51 0.98949999 0 200 255
55.555698 51 1.0132999 0 200 255
55.555698 51 1.0373 0 200 255
55.555698 51 1.0614001 0 200 255
55.555698 51 1.0855 0 200 255
55.555698 51 1.1097 0 200 255
55.555698 51 1.1339999 0 200 255
55.555698 51 1.1585 0 200 255
55.555698 51 1.183 0 200 255
55.555698 51 1.2076 0 200 255
55.555698 51 1.2323999 0 200 255
55.555698 51 1.2573 0 200 255
55.555698 51 1.2823 0 200 255
55.555698 51 1.3074 0 200 255
55.555698 51 1.3327 0 200 255
55.555698 51 1.3581001 0 200 255
55.555698 51 1.3837 0 200 255
55.555698 51 1.4094 0 200 255
55.555698 51 1.4352 0 200 255
55.555698 51 1.4612 0 200 255
55.5858 51 0.015699999 0 200 255
55.5858 51 0.0392 0 200 255
55.5858 51 0.062700003 0 200 255
55.5858 51 0.086099997 0 200 255
55.5858 51 0.1095 0 200 255
55.5858 51 0.1328 0 200 255
55.5858 51 0.156 0 200 255
55.5858 51 0.17919999 0 200 255
55.5858 51 0.2023 0 200 255
55.5858 51 0.2254 0 200 255
55.5858 51 0.2484 0 200 255
55.5858 51 0.2714 0 200 255
55.5858 51 0.29429999 0 200 255
55.5858 51 0.31729999 0 200 255
55.5858 51 0.34020001 0 200 255
55.5858 51 0.36309999 0 200 255
55.5858 51 0.38589999 0 200 255
55.5858 51 0.40869999 0 200 255
55.5858 51 0.4316 0 200 255
55.5858 51 0.4544 0 200 255
55.5858 51 0.4772 0 200 255
55.5858 51 0.5 0 200 255
55.5858 51 0.52280003 0 200 255
55.5858 51 0.5456 0 200 255
55.5858 51 0.56840003 0 200 255
55.5858 51 0.59130001 0 200 255
55.5858 51 0.61409998 0 200 255
55.5858 51 0.63690001 0 200 255
55.5858 51 0.65979999 0 200 255
55.5858 51 0.68269998 0 200 255
55.5858 51 0.70569998 0 200 255
55.5858 51 0.72860003 0 200 255
55.5858 51 0.75160003 0 200 255
55.5858 51 0.77460003 0 200 255
55.5858 51 0.79769999 0 200 255
55.5858 51 0.82080001 0 200 255
55.5858 51 0.84399998 0 200 255
55.5858 51 0.86720002 0 200 255
55.5858 51 0.89050001 0 200 255
55.5858 51 0.91390002 0 200 255
55.5858 51 0.93730003 0 200 255
55.5858 51 0.96079999 0 200 255
55.5858 51 0.98430002 0 200 255
55.5858 51 1.0079 0 200 255
55.5858 51 1.0316 0 200 255
55.5858 51 1.0554 0 200 255
55.5858 51 1.0793 0 200 255
55.5858 51 1.1033 0 200 255
55.5858 51 1.1274 0 200 255
55.5858 51 1.1515 0 200 255
55.5858 51 1.1758 0 200 255
55.5858 51 1.2002 0 200 255
55.5858 51 1.2247 0 200 255
55.5858 51 1.2493 0 200 255
55.5858 51 1.274 0 200 255
55.5858 51 1.2989 0 200 255
55.5858 51 1.3239 0 200 255
55.5858 51 1.3491 0 200 255
55.5858 51 1.3743 0 200 255
55.5858 51 1.3997999 0 200 255
55.5858 51 1.4254 0 200 255
55.5858 51 1.4511 0 200 255
55.615299 51 0.0207 0 200 255
55.615299 51 0.044 0 200 255
55.615299 51 0.067299999 0 200 255
55.615299 51 0.090400003 0 200 255
55.615299 51 0.1135 0 200 255
55.615299 51 0.1366 0 200 255
55.615299 51 0.1596 0 200 255
55.615299 51 0.1825 0 200 255
55.615299 51 0.2054 0 200 255
55.615299 51 0.2282 0 200 255
55.615299 51 0.25099999 0 200 255
55.615299 51 0.27379999 0 200 255
55.615299 51 0.2965 0 200 255
55.615299 51 0.31920001 0 200 255
55.615299 51 0.3418 0 200 255
55.615299 51 0.36449999 0 200 255
55.615299 51 0.38710001 0 200 255
55.615299 51 0.40970001 0 200 255
55.615299 51 0.4323 0 200 255
55.615299 51 0.4549 0 200 255
55.615299 51 0.4774 0 200 255
55.615299 51 0.5 0 200 255
55.615299 51 0.5226 0 200 255
55.615299 51 0.54509997 0 200 255
55.615299 51 0.56770003 0 200 255
55.615299 51 0.59030002 0 200 255
55.615299 51 0.61290002 0 200 255
55.615299 51 0.63550001 0 200 255
55.615299 51 0.65820003 0 200 255
55.615299 51 0.68080002 0 200 255
55.615299 51 0.70349997 0 200 255
55.615299 51 0.72619998 0 200 255
55.615299 51 0.74900001 0 200 255
55.615299 51 0.77179998 0 200 255
55.615299 51 0.79460001 0 200 255
55.615299 51 0.8175 0 200 255
55.615299 51 0.84039998 0 200 255
55.615299 51 0.86339998 0 200 255
55.615299 51 0.8865 0 200 255
55.615299 51 0.90960002 0 200 255
55.615299 51 0.93269998 0 200 255
55.615299 51 0.95599997 0 200 255
55.615299 51 0.97930002 0 200 255
55.615299 51 1.0026 0 200 255
55.615299 51 1.0261 0 200 255
55.615299 51 1.0496 0 200 255
55.615299 51 1.0733 0 200 255
55.615299 51 1.097 0 200 255
55.615299 51 1.1208 0 200 255
55.615299 51 1.1447001 0 200 255
55.615299 51 1.1688 0 200 255
55.615299 51 1.1928999 0 200 255
55.615299 51 1.2171 0 200 255
55.615299 51 1.2415 0 200 255
55.615299 51 1.266 0 200 255
55.615299 51 1.2905999 0 200 255
55.615299 51 1.3153 0 200 255
55.615299 51 1.3401999 0 200 255
55.615299 51 1.3652 0 200 255
55.615299 51 1.3904001 0 200 255
55.615299 51 1.4157 0 200 255
55.615299 51 1.4412 0 200 255
55.644199 51 0.0024999999 0 200 255
55.644199 51 0.025699999 0 200 255
55.644199 51 0.048700001 0 200 255
55.644199 51 0.071699999 0 200 255
55.644199 51 0.094599999 0 200 255
55.644199 51 0.1175 0 200 255
55.644199 51 0.14030001 0 200 255
55.644199 51 0.1631 0 200 255
55.644199 51 0.1858 0 200 255
55.644199 51 0.2084 0 200 255
55.644199 51 0.23100001 0 200 255
55.644199 51 0.2536 0 200 255
55.644199 51 0.27610001 0 200 255
55.644199 51 0.29859999 0 200 255
55.644199 51 0.32100001 0 200 255
55.644199 51 0.34349999 0 200 255
55.644199 51 0.36590001 0 200 255
55.644199 51 0.3883 0 200 255
55.644199 51 0.41060001 0 200 255
55.644199 51 0.433 0 200 255
55.644199 51 0.4553 0 200 255
55.644199 51 0.4777 0 200 255
55.644199 51 0.5 0 200 255
55.644199 51 0.5223 0 200 255
55.644199 51 0.54470003 0 200 255
55.644199 51 0.56699997 0 200 255
55.644199 51 0.58939999 0 200 255
55.644199 51 0.6117 0 200 255
55.644199 51 0.63410002 0 200 255
55.644199 51 0.65649998 0 200 255
55.644199 51 0.67900002 0 200 255
55.644199 51 0.70139998 0 200 255
55.644199 51 0.72390002 0 200 255
55.644199 51 0.7464 0 200 255
55.644199 51 0.76899999 0 200 255
55.644199 51 0.79159999 0 200 255
55.644199 51 0.81419998 0 200 255
55.644199 51 0.8369 0 200 255
55.644199 51 0.85970002 0 200 255
55.644199 51 0.88249999 0 200 255
55.644199 51 0.90539998 0 200 255
55.644199 51 0.92830002 0 200 255
55.644199 51 0.95130002 0 200 255
55.644199 51 0.97430003 0 200 255
55.644199 51 0.9975 0 200 255
55.644199 51 1.0207 0 200 255
55.644199 51 1.044 0 200 255
55.644199 51 1.0674 0 200 255
55.644199 51 1.0908999 0 200 255
55.644199 51 1.1144 0 200 255
55.644199 51 1.1381 0 200 255
55.644199 51 1.1619 0 200 255
55.644199 51 1.1858 0 200 255
55.644199 51 1.2098 0 200 255
55.644199 51 1.2339 0 200 255
55.644199 51 1.2581 0 200 255
55.644199 51 1.2825 0 200 255
55.644199 51 1.3069 0 200 255
55.644199 51 1.3316 0 200 255
55.644199 51 1.3563 0 200 255
55.644199 51 1.3812 0 200 255
55.644199 51 1.4062999 0 200 255
55.644199 51 1.4315 0 200 255
55.672501 51 0.0076000001 0 200 255
55.672501 51 0.0305 0 200 255
55.672501 51 0.053300001 0 200 255
55.672501 51 0.076099999 0 200 255
55.672501 51 0.098800004 0 200 255
55.672501 51 0.1214 0 200 255
55.672501 51 0.14399999 0 200 255
55.672501 51 0.1665 0 200 255
55.672501 51 0.189 0 200 255
55.672501 51 0.2114 0 200 255
55.672501 51 0.23370001 0 200 255
55.672501 51 0.2561 0 200 255
55.672501 51 0.2784 0 200 255
55.672501 51 0.30059999 0 200 255
55.672501 51 0.3229 0 200 255
55.672501 51 0.34509999 0 200 255
55.672501 51 0.36719999 0 200 255
55.672501 51 0.38940001 0 200 255
55.672501 51 0.41150001 0 200 255
55.672501 51 0.4337 0 200 255
55.672501 51 0.4558 0 200 255
55.672501 51 0.4779 0 200 255
55.672501 51 0.5 0 200 255
55.672501 51 0.52209997 0 200 255
55.672501 51 0.5442 0 200 255
55.672501 51 0.56629997 0 200 255
55.672501 51 0.58850002 0 200 255
55.672501 51 0.61059999 0 200 255
55.672501 51 0.63279998 0 200 255
55.672501 51 0.65490001 0 200 255
55.672501 51 0.6771 0 200 255
55.672501 51 0.69940001 0 200 255
55.672501 51 0.7216 0 200 255
55.672501 51 0.7439 0 200 255
55.672501 51 0.76630002 0 200 255
55.672501 51 0.78860003 0 200 255
55.672501 51 0.81099999 0 200 255
55.672501 51 0.83350003 0 200 255
55.672501 51 0.85600001 0 200 255
55.672501 51 0.8786 0 200 255
55.672501 51 0.9012 0 200 255
55.672501 51 0.92390001 0 200 255
55.672501 51 0.94669998 0 200 255
55.672501 51 0.96950001 0 200 255
55.672501 51 0.99239999 0 200 255
55.672501 51 1.0154001 0 200 255
55.672501 51 1.0385 0 200 255
55.672501 51 1.0616 0 200 255
55.672501 51 1.0849 0 200 255
55.672501 51 1.1082 0 200 255
55.672501 51 1.1316 0 200 255
55.672501 51 1.1551 0 200 255
55.672501 51 1.1788 0 200 255
55.672501 51 1.2025 0 200 255
55.672501 51 1.2264 0 200 255
55.672501 51 1.2503999 0 200 255
55.672501 51 1.2745 0 200 255
55.672501 51 1.2987 0 200 255
55.672501 51 1.3231 0 200 255
55.672501 51 1.3476 0 200 255
55.672501 51 1.3723 0 200 255
55.672501 51 1.3971 0 200 255
55.672501 51 1.4220001 0 200 255
55.700199 51 0.0125 0 200 255
55.700199 51 0.0352 0 200 255
55.700199 51 0.057799999 0 200 255
55.700199 51 0.080300003 0 200 255
55.700199 51 0.1028 0 200 255
55.700199 51 0.1252 0 200 255
55.700199 51 0.14749999 0 200 255
55.700199 51 0.1698 0 200 255
55.700199 51 0.1921 0 200 255
55.700199 51 0.21430001 0 200 255
55.700199 51 0.23639999 0 200 255
55.700199 51 0.25850001 0 200 255
55.700199 51 0.28060001 0 200 255
55.700199 51 0.3026 0 200 255
55.700199 51 0.32460001 0 200 255
55.700199 51 0.3466 0 200 255
55.700199 51 0.36860001 0 200 255
55.700199 51 0.39050001 0 200 255
55.700199 51 0.41240001 0 200 255
55.700199 51 0.43430001 0 200 255
55.700199 51 0.4562 0 200 255
55.700199 51 0.4781 0 200 255
55.700199 51 0.5 0 200 255
55.700199 51 0.5219 0 200 255
55.700199 51 0.5438 0 200 255
55.700199 51 0.56569999 0 200 255
55.700199 51 0.58759999 0 200 255
55.700199 51 0.60949999 0 200 255
55.700199 51 0.63139999 0 200 255
55.700199 51 0.6534 0 200 255
55.700199 51 0.67540002 0 200 255
55.700199 51 0.69739997 0 200 255
55.700199 51 0.71939999 0 200 255
55.700199 51 0.74150002 0 200 255
55.700199 51 0.76359999 0 200 255
55.700199 51 0.78570002 0 200 255
55.700199 51 0.80790001 0 200 255
55.700199 51 0.83020002 0 200 255
55.700199 51 0.85250002 0 200 255
55.700199 51 0.87480003 0 200 255
55.700199 51 0.89719999 0 200 255
55.700199 51 0.91970003 0 200 255
55.700199 51 0.94220001 0 200 255
55.700199 51 0.9648 0 200 255
55.700199 51 0.98750001 0 200 255
55.700199 51 1.0102 0 200 255
55.700199 51 1.0331 0 200 255
55.700199 51 1.056 0 200 255
55.700199 51 1.079 0 200 255
55.700199 51 1.1021 0 200 255
55.700199 51 1.1253 0 200 255
55.700199 51 1.1486 0 200 255
55.700199 51 1.1720001 0 200 255
55.700199 51 1.1955 0 200 255
55.700199 51 1.2191 0 200 255
55.700199 51 1.2429 0 200 255
55.700199 51 1.2667 0 200 255
55.700199 51 1.2907 0 200 255
55.700199 51 1.3148 0 200 255
55.700199 51 1.3391 0 200 255
55.700199 51 1.3635 0 200 255
55.700199 51 1.3881 0 200 255
55.700199 51 1.4128 0 200 255
55.727299 51 0.0174 0 200 255
55.727299 51 0.039799999 0 200 255
55.727299 51 0.062199999 0 200 255
55.727299 51 0.0845 0 200 255
55.727299 51 0.1067 0 200 255
55.727299 51 0.12890001 0 200 255
55.727299 51 0.15099999 0 200 255
55.727299 51 0.17309999 0 200 255
55.727299 51 0.19509999 0 200 255
55.727299 51 0.21709999 0 200 255
55.727299 51 0.23899999 0 200 255
55.727299 51 0.26089999 0 200 255
55.727299 51 0.28279999 0 200 255
55.727299 51 0.3046 0 200 255
55.727299 51 0.32640001 0 200 255
55.727299 51 0.34810001 0 200 255
55.727299 51 0.36989999 0 200 255
55.727299 51 0.39160001 0 200 255
55.727299 51 0.41330001 0 200 255
55.727299 51 0.435 0 200 255
55.727299 51 0.4567 0 200 255
55.727299 51 0.47830001 0 200 255
55.727299 51 0.5 0 200 255
55.727299 51 0.52170002 0 200 255
55.727299 51 0.54329997 0 200 255
55.727299 51 0.565 0 200 255
55.727299 51 0.58670002 0 200 255
55.727299 51 0.60839999 0 200 255
55.727299 51 0.63010001 0 200 255
55.727299 51 0.65189999 0 200 255
55.727299 51 0.67360002 0 200 255
55.727299 51 0.6954 0 200 255
55.727299 51 0.71719998 0 200 255
55.727299 51 0.73909998 0 200 255
55.727299 51 0.76099998 0 200 255
55.727299 51 0.78289998 0 200 255
55.727299 51 0.80489999 0 200 255
55.727299 51 0.82690001 0 200 255
55.727299 51 0.84899998 0 200 255
55.727299 51 0.87110001 0 200 255
55.727299 51 0.8933 0 200 255
55.727299 51 0.91549999 0 200 255
55.727299 51 0.93779999 0 200 255
55.727299 51 0.96020001 0 200 255
55.727299 51 0.98259997 0 200 255
55.727299 51 1.0052 0 200 255
55.727299 51 1.0278 0 200 255
55.727299 51 1.0505 0 200 255
55.727299 51 1.0732 0 200 255
55.727299 51 1.0961 0 200 255
55.727299 51 1.1191 0 200 255
55.727299 51 1.1421 0 200 255
55.727299 51 1.1653 0 200 255
55.727299 51 1.1885999 0 200 255
55.727299 51 1.212 0 200 255
55.727299 51 1.2355 0 200 255
55.727299 51 1.2591 0 200 255
55.727299 51 1.2829 0 200 255
55.727299 51 1.3068 0 200 255
55.727299 51 1.3308001 0 200 255
55.727299 51 1.3549 0 200 255
55.727299 51 1.3793 0 200 255
55.727299 51 1.4037 0 200 255
55.754002 51 0.0221 0 200 255
55.754002 51 0.044300001 0 200 255
55.754002 51 0.066500001 0 200 255
55.754002 51 0.088600002 0 200 255
55.754002 51 0.1106 0 200 255
55.754002 51 0.13259999 0 200 255
55.754002 51 0.15449999 0 200 255
55.754002 51 0.1763 0 200 255
55.754002 51 0.1981 0 200 255
55.754002 51 0.2199 0 200 255
55.754002 51 0.24160001 0 200 255
55.754002 51 0.2633 0 200 255
55.754002 51 0.28490001 0 200 255
55.754002 51 0.30649999 0 200 255
55.754002 51 0.3281 0 200 255
55.754002 51 0.34959999 0 200 255
55.754002 51 0.3712 0 200 255
55.754002 51 0.39269999 0 200 255
55.754002 51 0.41409999 0 200 255
55.754002 51 0.43560001 0 200 255
55.754002 51 0.4571 0 200 255
55.754002 51 0.47850001 0 200 255
55.754002 51 0.5 0 200 255
55.754002 51 0.52149999 0 200 255
55.754002 51 0.54290003 0 200 255
55.754002 51 0.56440002 0 200 255
55.754002 51 0.58590001 0 200 255
55.754002 51 0.60729998 0 200 255
55.754002 51 0.62879997 0 200 255
55.754002 51 0.65039998 0 200 255
55.754002 51 0.67189997 0 200 255
55.754002 51 0.69349998 0 200 255
55.754002 51 0.71509999 0 200 255
55.754002 51 0.7367 0 200 255
55.754002 51 0.75840002 0 200 255
55.754002 51 0.78009999 0 200 255
55.754002 51 0.80190003 0 200 255
55.754002 51 0.82370001 0 200 255
55.754002 51 0.84549999 0 200 255
55.754002 51 0.86739999 0 200 255
55.754002 51 0.88940001 0 200 255
55.754002 51 0.91140002 0 200 255
55.754002 51 0.93349999 0 200 255
55.754002 51 0.95569998 0 200 255
55.754002 51 0.97790003 0 200 255
55.754002 51 1.0002 0 200 255
55.754002 51 1.0226001 0 200 255
55.754002 51 1.0451 0 200 255
55.754002 51 1.0676 0 200 255
55.754002 51 1.0903 0 200 255
